# .PCD v0.7 - Point Cloud Data file format
VERSION 0.7
FIELDS x y z
SIZE 4 4 4
TYPE F F F
COUNT 1 1 1
WIDTH 1465
HEIGHT 1
VIEWPOINT 0 0 0 1 0 0 0
POINTS 1465
DATA ascii
-3.6672242 2.1836586 -0.27999654
-3.6760161 2.2266874 -0.28696144
-3.6786144 2.2656817 -0.29041493
-3.6874199 2.3473325 -0.2993702
-3.6800089 2.3810098 -0.2971836
-3.6627271 2.4061911 -0.28930295
-3.6828866 2.4601567 -0.30274999
-3.6863112 2.5029655 -0.30672204
-3.6870732 2.542877 -0.30911389
-3.6904216 2.5851927 -0.31298125
-3.693994 2.6268651 -0.31691778
-3.6905875 2.6656618 -0.31697595
-3.6939666 2.7103801 -0.32091609
-3.7017643 2.7580013 -0.32733217
-3.7030935 2.8019011 -0.33009776
-3.7018805 2.8427498 -0.33134189
-3.7003942 2.8837056 -0.33242476
-3.7124031 2.9369159 -0.34127012
-3.7097368 2.9789765 -0.34172955
-3.9088628 1.3030157 -0.21661676
-3.9147079 1.3377657 -0.22153676
-3.9167361 1.371951 -0.22452037
-3.9107249 1.4015139 -0.22325005
-3.9188817 1.4390193 -0.22940053
-3.9141412 1.4694724 -0.22876322
-3.9225473 1.5056103 -0.2349156
-3.9235573 1.5402961 -0.23730935
-3.9275784 1.5767455 -0.24126492
-3.9236999 1.6082863 -0.24102269
-3.9260552 1.6432745 -0.24402897
-3.9250023 1.6766469 -0.24523842
-3.9285333 1.7127132 -0.24883854
-3.9302528 1.7480247 -0.25147784
-3.9341431 1.7868971 -0.25535068
-3.9326494 1.8198012 -0.25622639
-3.9431565 1.8609262 -0.26345408
-3.9419997 1.896628 -0.26458731
-3.9445734 1.9326162 -0.26757064
-3.946094 1.9703914 -0.27008858
-3.9473732 2.0082846 -0.27246678
-3.9508138 2.0455909 -0.2758745
-3.9516127 2.083725 -0.27797472
-3.9541426 2.1221223 -0.28092924
-3.9625583 2.1646357 -0.28698698
-3.9625974 2.2031622 -0.28864968
-3.9628458 2.2409568 -0.290362
-3.9643726 2.2798817 -0.29273883
-3.9747162 2.325146 -0.29978243
-3.9752345 2.3652132 -0.30164948
-3.9804709 2.4077241 -0.30596319
-3.9854202 2.4504087 -0.31011498
-3.9880996 2.4930339 -0.31309429
-3.987041 2.530864 -0.31398001
-3.9936004 2.5770426 -0.31900087
-3.9944601 2.6181607 -0.32092822
-4.0038428 2.6660862 -0.32738933
-3.9992223 2.7049837 -0.32641062
-4.0050602 2.7510276 -0.33095753
-4.009131 2.7961202 -0.33454934
-4.0206461 2.8462915 -0.34206927
-4.0177755 2.8879764 -0.34196815
-4.0232048 2.9367762 -0.3462936
-2.1993535 1.4640335 -0.21911205
-2.1931694 1.4874046 -0.21850216
-2.1929049 1.5167075 -0.22316276
-2.1893203 1.5417148 -0.22472492
-2.1495419 1.8433355 -0.24686469
-2.346416 1.5529009 -0.22126403
-2.3438432 1.5802128 -0.22351137
-2.3003731 1.9821348 -0.25357217
-2.27036 2.2668517 -0.27630559
-2.2702112 2.3032334 -0.28179184
-2.2617121 2.330667 -0.28017369
-2.2594519 2.3665328 -0.28414741
-2.2539842 2.3979678 -0.28524506
-2.227442 2.6855364 -0.31173003
-2.2219925 2.720356 -0.31344643
-2.2152243 2.7538457 -0.31406131
-2.49209 1.9566141 -0.254702
-2.4599142 2.3097317 -0.28010619
-2.4560566 2.3435974 -0.28205812
-2.4524372 2.3769162 -0.2841
-2.4266193 2.7028613 -0.31062189
-2.4228134 2.739706 -0.31305659
-2.4182067 2.7772601 -0.31506291
-2.6894064 1.8905964 -0.2497634
-2.6867106 1.9211119 -0.25152078
-2.6650233 2.3959064 -0.29174602
-2.6560099 2.5796292 -0.30691615
-2.6549823 2.6181104 -0.31064072
-2.6326213 2.9728246 -0.3367759
-2.9033608 1.863363 -0.25362861
-2.9047251 2.171577 -0.28442231
-2.9006467 2.2035775 -0.28502715
-2.8897059 2.3399854 -0.29148832
-2.8952539 2.4980259 -0.31001252
-2.8878875 2.5684559 -0.31223527
-2.8832488 2.8926377 -0.34014335
-2.8819444 2.9340446 -0.34325111
-3.1392946 1.3335096 -0.21882357
-3.1404762 1.3648231 -0.22225034
-3.1372254 1.3928945 -0.22282185
-3.135076 1.6724098 -0.24560225
-3.1344883 1.703966 -0.24793138
-3.1384885 1.7378466 -0.25311008
-3.1327245 1.7673285 -0.25224367
-3.1307352 1.898839 -0.26205838
-3.1331325 2.1084087 -0.28066003
-3.1288781 2.1392534 -0.280687
-3.1315389 2.4378822 -0.3061496
-3.1302309 2.4748716 -0.30830586
-3.1326895 2.5155606 -0.31294575
-3.136194 2.7182553 -0.33080402
-3.1329341 2.7984276 -0.33507931
-3.1305113 2.8376791 -0.3366729
-3.1311059 2.8816011 -0.34038416
-3.3490989 1.3068861 -0.21074139
-3.3513908 1.3374188 -0.21434391
-3.3512821 1.3687162 -0.216673
-3.3494236 1.3992481 -0.21796812
-3.3527229 1.4309117 -0.2221738
-3.3520458 1.4624591 -0.22416985
-3.3484316 1.4915758 -0.22435345
-3.3547368 1.6874323 -0.24217474
-3.3524928 1.7196248 -0.24324787
-3.3549521 1.7540102 -0.24706303
-3.353801 1.7873316 -0.24879329
-3.3483498 1.8170394 -0.24787581
-3.3505774 1.8509681 -0.2514917
-3.3603737 2.0661364 -0.27173769
-3.3591492 2.1005774 -0.27338186
-3.3597143 2.1387556 -0.27625811
-3.362797 2.1758685 -0.28044787
-3.3608816 2.2106099 -0.28168741
-3.3625727 2.2494855 -0.28519261
-3.3671687 2.4021604 -0.29767886
-3.368938 2.4428339 -0.30127203
-3.3709147 2.482892 -0.3049275
-3.3684564 2.5195949 -0.30587906
-3.3693962 2.560667 -0.30899039
-3.3705566 2.6011157 -0.31217065
-3.371439 2.6416984 -0.31518972
-3.3764524 2.7678938 -0.32575953
-3.3783352 2.812243 -0.32951131
-3.3785603 2.8555121 -0.3322517
-3.3809121 2.898639 -0.33616224
-3.3844886 2.9459639 -0.3409971
-3.3816991 2.986378 -0.34182826
-3.5986669 1.3221451 -0.21812879
-3.5912123 1.3496437 -0.21607436
-3.5996108 1.3852049 -0.22280732
-3.5914969 1.4135485 -0.22042933
-3.6013088 1.713006 -0.2443711
-3.6042171 1.748225 -0.24801575
-3.6069031 1.7835701 -0.25153342
-3.6001408 1.8133799 -0.24973978
-3.5989466 1.8477935 -0.25112566
-3.6170442 2.0349486 -0.27132052
-3.6225979 2.1114841 -0.27847254
-3.620002 2.1459441 -0.27897298
-3.6246176 2.185688 -0.28355443
-3.6402245 2.4624569 -0.30616757
-3.6407645 2.503062 -0.30847657
-3.6443946 2.5452538 -0.31248865
-3.6448827 2.5853271 -0.31470382
-3.6543057 2.7578368 -0.32793701
-3.6575749 2.8021288 -0.33173719
-3.6577556 2.844193 -0.33376232
-3.6645668 2.89241 -0.33959857
-3.6663368 2.9380054 -0.34259406
-3.6661727 2.9796948 -0.34435758
-3.8646019 1.3038238 -0.21961558
-3.8671589 1.337088 -0.22281323
-3.8807704 1.5744869 -0.24271502
-3.8797553 1.6085553 -0.2440096
-3.8817408 1.6444044 -0.24686156
-3.8810565 1.6769781 -0.24819651
-3.8842075 1.713906 -0.25163591
-3.8843329 1.7483639 -0.25342357
-3.8842523 1.7829096 -0.25509012
-3.8970835 1.9321238 -0.26861063
-3.9052591 1.972859 -0.27457249
-3.9018657 2.0079353 -0.27446952
-3.9017866 2.0441639 -0.27605191
-3.9041364 2.0832753 -0.27895367
-3.9143598 2.1266158 -0.28596127
-3.9140031 2.1623712 -0.28731313
-3.9216938 2.2059302 -0.29301113
-3.9249735 2.2458069 -0.29631531
-3.9260142 2.2856421 -0.29846677
-3.9257526 2.3237216 -0.29986703
-3.9252503 2.361901 -0.30112588
-3.936507 2.4086239 -0.30862251
-3.9384668 2.4492061 -0.31116691
-3.9436398 2.494837 -0.31549945
-3.9511096 2.5791512 -0.32237542
-3.9499788 2.6200514 -0.3232671
-3.9569428 2.6649292 -0.32837689
-3.9552519 2.7060845 -0.32894173
-3.9625432 2.7532876 -0.33424723
-3.9695024 2.8007023 -0.3393659
-3.97558 2.8491769 -0.3440448
-3.974685 2.8911996 -0.34493744
-3.9792311 2.9380133 -0.34872976
-4.2383618 2.1450295 -0.29747617
-4.2405295 2.1856821 -0.29983488
-4.2475958 2.2284827 -0.30455843
-4.2554812 2.2733395 -0.3097063
-4.2608871 2.3540077 -0.31469974
-4.2694535 2.400414 -0.32012522
-4.2751012 2.4441102 -0.32404914
-4.2738199 2.4847655 -0.32454553
-4.2773719 2.5277355 -0.32738534
-4.2928505 2.5792375 -0.33612931
-4.2988372 2.6247003 -0.34013832
-4.2954302 2.6639469 -0.3394548
-4.3043108 2.7147524 -0.34491745
-4.3144236 2.7630951 -0.35088384
-4.3161778 2.8070939 -0.35269725
-4.3170958 2.8521333 -0.35409728
-4.330708 2.9044197 -0.36174384
-4.3354244 2.9531794 -0.36498871
-2.2879517 1.5928954 -0.2249451
-2.2812202 1.6170665 -0.22383671
-2.2437263 1.9623959 -0.24932458
-2.2164171 2.3200595 -0.28479651
-2.2096612 2.3507349 -0.28485182
-2.184974 2.5541701 -0.29923442
-2.449687 1.6619431 -0.22461608
-2.4361031 2.002877 -0.26003531
-2.4048626 2.2884028 -0.27690366
-2.40661 2.3637528 -0.28802565
-2.4035952 2.3990636 -0.29070616
-2.3768277 2.6849749 -0.31101772
-2.3498492 2.9973006 -0.33500963
-2.6715462 1.3473685 -0.21202782
-2.6642959 1.5189373 -0.22680689
-2.6550622 1.5722448 -0.22695565
-2.6545911 1.6650642 -0.2371476
-2.6429281 1.9111747 -0.25754356
-2.6361055 1.9384352 -0.2562826
-2.634949 1.972664 -0.25941539
-2.6227081 2.2751784 -0.28581932
-2.6175745 2.3066032 -0.28610393
-2.6155546 2.3424258 -0.28886777
-2.6058841 2.6408575 -0.31644562
-2.5962207 2.7124279 -0.31838563
-2.5853963 2.9548435 -0.33889771
-2.8811409 1.428095 -0.23101096
-2.8762076 1.4538536 -0.23056127
-2.8748479 1.4838122 -0.23269509
-2.8646328 1.822772 -0.25969914
-2.8589573 1.8501097 -0.2589002
-2.857909 1.8831067 -0.26146582
-2.8580332 1.9172726 -0.26485395
-2.8457038 2.1826386 -0.28291181
-2.8451238 2.2188287 -0.28602529
-2.8518682 2.2596052 -0.29404259
-2.843498 2.5556803 -0.31709695
-2.8370237 2.5885193 -0.31624579
-2.8299568 2.9548628 -0.34635881
-2.8276579 2.9971642 -0.34890297
-3.0743275 2.1197059 -0.27933979
-3.0807514 2.160157 -0.28633669
-3.0769873 2.3028176 -0.29551816
-3.0796351 2.4954841 -0.3122142
-3.0805693 2.8177512 -0.33758762
-3.0839043 2.8641815 -0.34307244
-3.0816126 2.9029133 -0.34466079
-3.3030005 1.3855144 -0.22219872
-3.2996006 1.445303 -0.22479987
-3.2951562 1.6339508 -0.23615168
-3.2971904 1.7996349 -0.24903108
-3.3006365 1.8352702 -0.25342464
-3.3095319 2.01315 -0.27055478
-3.3105967 2.1195784 -0.27827913
-3.3057191 2.1528032 -0.27776694
-3.3063846 2.1904049 -0.28061393
-3.3129787 2.2317431 -0.28699139
-3.3226216 2.5039895 -0.30978158
-3.3181617 2.5403759 -0.30956054
-3.3213656 2.5811951 -0.31388831
-3.3304486 2.8787427 -0.33702257
-3.3281257 2.9189861 -0.33809924
-3.3308101 2.9643717 -0.34228018
-3.5455213 1.3981656 -0.22473361
-3.5494053 1.4976069 -0.23313665
-3.5524185 1.8324498 -0.25498459
-3.5638382 1.979445 -0.26935601
-3.5713284 2.2026174 -0.28541231
-3.5850236 2.4401178 -0.30482605
-3.591989 2.4843194 -0.31071571
-3.5928981 2.5242252 -0.31315041
-3.6127777 2.9120867 -0.34177116
-3.816066 1.2882663 -0.22262742
-3.8124678 1.3176931 -0.22255683
-3.8341031 1.6958009 -0.25361803
-3.8327563 1.7293671 -0.25461867
-3.859513 2.1043274 -0.28526479
-3.8883178 2.3909273 -0.31137562
-3.8904128 2.4314899 -0.31397417
-3.9158862 2.7762375 -0.33900523
-3.9230635 2.826627 -0.34429002
-4.1351752 1.5509412 -0.2521489
-4.1299791 1.5830017 -0.25113994
-4.1623216 1.8494852 -0.27731994
-4.1726408 1.928043 -0.28514507
-4.2124162 2.2558401 -0.31503159
-4.2045283 2.2910697 -0.31233647
-4.2480326 2.6450608 -0.34258607
-4.2510891 2.6877589 -0.34504917
-4.2751627 2.8786869 -0.36074045
-4.27915 2.9253328 -0.36357951
-2.2337656 1.5755057 -0.22501601
-2.2070711 1.8303632 -0.24406923
-2.2081738 1.862304 -0.24957955
-2.1939607 2.0147359 -0.26252857
-2.1813421 2.1052222 -0.26742712
-2.423759 1.3985628 -0.21220672
-2.4179907 1.4238613 -0.2115947
-2.3773563 1.9130349 -0.24761668
-2.3801672 1.949308 -0.25420037
-2.3758657 1.9774945 -0.25501263
-2.3420501 2.4453449 -0.29392421
-2.3156705 2.8198462 -0.32609218
-2.3116465 2.8590329 -0.32864892
-2.5900526 1.8287153 -0.25151169
-2.5716238 2.2216017 -0.28389919
-2.5685859 2.2534788 -0.28554431
-2.56569 2.2879567 -0.28757158
-2.5493021 2.655324 -0.31839287
-2.5472512 2.6947272 -0.32151213
-2.5454395 2.7335873 -0.32472244
-2.5433486 2.772558 -0.32776728
-2.5331178 2.8900747 -0.33444947
-2.5260265 3.01267 -0.343701
-2.8081713 1.7691394 -0.25561324
-2.8043251 1.8288969 -0.25904575
-2.8074946 1.8998511 -0.26781765
-2.7995982 1.9269353 -0.26560843
-2.7933815 2.0582294 -0.27440348
-2.7957821 2.1657703 -0.28613219
-2.799818 2.2047138 -0.29230297
-2.7964416 2.238692 -0.29347053
-2.7924309 2.2701855 -0.29401055
-2.7939086 2.3090343 -0.29859653
-2.7903116 2.3425627 -0.29957339
-2.7861061 2.568929 -0.3183381
-2.7859201 2.6080797 -0.32189789
-2.782927 2.6448236 -0.32350981
-2.7804189 2.6836214 -0.32560673
-2.788703 2.731406 -0.33514464
-2.781862 2.7666013 -0.33424249
-2.7830482 2.8947992 -0.34690854
-2.7793481 2.9336052 -0.34824669
-2.776587 2.9738362 -0.35028756
-3.0363958 1.3314784 -0.22567928
-3.0282986 1.3874855 -0.22581282
-3.0294952 1.4182575 -0.22914425
-3.028851 1.7650408 -0.25791824
-3.0277138 1.796886 -0.25988281
-3.0216265 1.8264891 -0.25877491
-3.021951 1.8587641 -0.2616078
-3.0169406 1.8894757 -0.26119989
-3.0308175 1.9330751 -0.27282873
-3.0268807 2.1385133 -0.28706992
-3.0280581 2.1739042 -0.29057422
-3.0248697 2.2093456 -0.29152504
-3.0195885 2.2411518 -0.29095665
-3.0230613 2.3182545 -0.29905432
-3.0281758 2.3982491 -0.30830163
-3.0284326 2.5128994 -0.31734717
-3.0288262 2.553288 -0.32069173
-3.0299487 2.5923533 -0.32435217
-3.0325093 2.8843102 -0.34801158
-3.0352082 2.9282684 -0.35289279
-3.0288546 2.9660769 -0.35198203
-3.2435679 1.4258082 -0.22512187
-3.2476077 1.5858905 -0.23902857
-3.2444844 1.6814766 -0.24411929
-3.254462 1.9584018 -0.26878393
-3.2534528 2.2049835 -0.2845377
-3.2647526 2.2868969 -0.29611742
-3.2703242 2.4441187 -0.30918375
-3.2725885 2.6018982 -0.32020539
-3.2761791 2.7281814 -0.32986346
-3.2746682 2.8091893 -0.33384573
-3.2836695 2.9454923 -0.34691325
-3.4920161 1.3804052 -0.22678152
-3.4903288 1.4120511 -0.22793356
-3.4939077 1.4446611 -0.23188463
-3.4931059 1.5092149 -0.23552673
-3.4957027 1.6760117 -0.24706376
-3.4993472 1.8126192 -0.25698435
-3.5027843 1.8499508 -0.26093301
-3.5189095 2.1430738 -0.28554145
-3.5157018 2.1784527 -0.28570119
-3.5260484 2.222553 -0.29348388
-3.5420947 2.5009036 -0.31594029
-3.5424538 2.5826073 -0.32003558
-3.5490012 2.7102914 -0.32947531
-3.5584645 2.8440645 -0.34057131
-3.564393 2.9355483 -0.34776416
-3.5642865 2.9772742 -0.34950602
-3.7622085 1.2998245 -0.22639528
-3.7615235 1.3316262 -0.22787011
-3.7606587 1.3634917 -0.22923844
-3.7632792 1.4297713 -0.23420179
-3.7839379 1.7113773 -0.2590715
-3.7856925 1.7467796 -0.26167455
-3.7919836 1.784965 -0.26665124
-3.7849989 1.8169346 -0.26468602
-3.8093529 2.0834084 -0.28882611
-3.805325 2.1188059 -0.28829899
-3.8385105 2.4449728 -0.31785309
-3.8402803 2.4893465 -0.32036743
-3.8708308 2.8435562 -0.3477959
-3.8800683 2.8937094 -0.35405648
-4.085597 1.5663464 -0.25781217
-4.0849037 1.6017516 -0.25902638
-4.0925751 1.6404095 -0.26427734
-4.0832634 1.6719065 -0.26121962
-4.1181331 1.8699305 -0.28545222
-4.1160626 1.9052807 -0.28578344
-4.1153922 1.9415871 -0.28678215
-4.1188898 1.981573 -0.28985447
-4.1561098 2.2707119 -0.3168675
-4.1975636 2.6599729 -0.34688249
-2.3570948 1.5027004 -0.22418796
-2.3202181 1.9397558 -0.25556746
-2.2434409 2.9693391 -0.33926594
-2.2410624 3.0111334 -0.34322512
-2.5463581 1.4908175 -0.22696005
-2.5275342 1.8824768 -0.25849786
-2.4961269 2.572753 -0.31520906
-2.468421 3.0027704 -0.34534895
-2.76385 1.3395911 -0.2262658
-2.7617266 1.3684075 -0.22778381
-2.7501206 1.7293686 -0.2555894
-2.7277968 2.638844 -0.32752836
-2.7321734 2.6833408 -0.33432499
-2.7312019 2.7229042 -0.33738461
-2.7248235 2.8416843 -0.34442103
-2.7214992 2.8803818 -0.3459405
-2.7215662 2.9231436 -0.34990731
-2.715905 2.9614089 -0.34994355
-2.7189853 3.008441 -0.35614029
-2.9674067 2.0585408 -0.28315675
-2.9709737 2.2764077 -0.30232564
-2.9644213 2.3458073 -0.30386534
-2.9693239 2.4642868 -0.315833
-2.9724083 2.5042822 -0.32069194
-2.9755514 2.5470955 -0.32578981
-2.9775579 2.5881364 -0.3300778
-2.9730134 2.7457631 -0.33926523
-2.9772191 2.8338389 -0.348297
-2.9733338 2.8720121 -0.34884253
-2.9755793 2.9166884 -0.35346478
-2.9756653 2.9609694 -0.35677731
-3.1963592 2.0174396 -0.27594844
-3.1997278 2.1627111 -0.28726497
-3.2022436 2.2007487 -0.29110307
-3.2045035 2.2389255 -0.29479352
-3.2072015 2.3922412 -0.3059122
-3.2121098 2.5113988 -0.31597224
-3.2164345 2.5541165 -0.32098547
-3.2116807 2.5907037 -0.32052627
-3.2263775 2.8495679 -0.3440477
-3.2282925 2.8935418 -0.34766379
-3.2259133 2.9339144 -0.34864131
-3.2298644 2.9806883 -0.3535344
-3.4293103 1.3060882 -0.22336708
-3.4348056 1.3399711 -0.22842395
-3.4385383 1.4375212 -0.23655763
-3.436517 1.4693629 -0.23748127
-3.4350028 1.4996815 -0.23855846
-3.4382706 1.5671813 -0.24438298
-3.44383 1.7705563 -0.25924909
-3.4398506 1.80311 -0.2590028
-3.4456835 1.8398057 -0.26414505
-3.4436295 1.8718747 -0.26485148
-3.4508462 1.9131583 -0.27094308
-3.4539263 2.0921817 -0.28218544
-3.4585028 2.1325877 -0.28671756
-3.4572959 2.1682119 -0.28791726
-3.4603152 2.2070632 -0.29150477
-3.4704618 2.2513418 -0.29913342
-3.4746878 2.3306448 -0.30533159
-3.4821701 2.4524221 -0.31522956
-3.4833193 2.4922895 -0.31773841
-3.4885128 2.5356581 -0.32255065
-3.4843168 2.5732074 -0.32205838
-3.4837494 2.6114986 -0.32351935
-3.4866776 2.6541555 -0.32702979
-3.4944386 2.7024245 -0.33335963
-3.4968276 2.7882071 -0.3384434
-3.509377 2.9257665 -0.35111293
-3.5129111 2.9719753 -0.35496178
-3.7005062 1.2880473 -0.2276691
-3.7048187 1.3221064 -0.23171435
-3.7069616 1.3563601 -0.23467433
-3.709228 1.3898904 -0.23763339
-3.7093308 1.42357 -0.23950565
-3.7112014 1.4572966 -0.24223365
-3.7242422 1.665978 -0.25935617
-3.7214861 1.6986814 -0.2595748
-3.7249084 1.7349468 -0.26302063
-3.7197888 1.7677329 -0.26201791
-3.729497 1.8069648 -0.26869404
-3.735002 1.8462573 -0.27325094
-3.7323918 1.8811183 -0.27352512
-3.7483482 2.0332885 -0.28816143
-3.7503767 2.073334 -0.2908622
-3.7534499 2.1109889 -0.29396355
-3.7507961 2.1474869 -0.29411519
-3.754487 2.1872139 -0.29756439
-3.7776015 2.3951452 -0.31715119
-3.7826872 2.4378963 -0.32127157
-3.7855017 2.4805994 -0.3242155
-3.7840643 2.5193677 -0.32484183
-3.7912683 2.5647581 -0.33005321
-3.8047395 2.7401667 -0.3426446
-3.8142178 2.7907381 -0.34905088
-3.8229687 2.8386984 -0.35498017
-3.8265147 2.884274 -0.35815656
-3.8248887 2.9273806 -0.35859171
-4.0100045 1.274608 -0.23948064
-4.0126972 1.3100009 -0.24247921
-4.0104752 1.34246 -0.24301349
-4.0261593 1.5202205 -0.25851548
-4.0174799 1.5516261 -0.25581041
-4.0287614 1.5916926 -0.26281419
-4.0319376 1.6270624 -0.26578701
-4.0374413 1.6659441 -0.2699708
-4.032896 1.7000105 -0.26920283
-4.0428219 1.74166 -0.27551809
-4.0636578 1.8971645 -0.29116762
-4.0690522 1.937975 -0.29516426
-4.0734167 1.9762703 -0.29855645
-4.065526 2.0101027 -0.29596153
-4.0669975 2.0494614 -0.29795897
-4.0738492 2.0899553 -0.30251852
-4.0764017 2.1305187 -0.30500785
-4.0932693 2.2561598 -0.31679669
-4.1019368 2.2994442 -0.3221606
-4.1109352 2.3457155 -0.32773602
-4.1123381 2.3863025 -0.3294948
-4.1165776 2.4290328 -0.33263746
-4.1174588 2.469877 -0.33409247
-4.1317086 2.5621829 -0.34315979
-4.1378546 2.6076605 -0.34715977
-4.1421776 2.6522636 -0.35023224
-4.1456804 2.6979363 -0.35290137
-4.1539264 2.7461088 -0.35787642
-4.1755948 2.9362612 -0.37193981
-2.244931 2.2220237 -0.28310701
-2.2118499 2.6453047 -0.31578207
-2.4916773 1.422394 -0.2250614
-2.4858944 1.5373262 -0.23396161
-2.4852808 1.5962282 -0.24002078
-2.4762199 1.6516542 -0.24031447
-2.4648709 1.8658717 -0.25653961
-2.4664247 1.89975 -0.26124027
-2.4596944 1.9270657 -0.25994137
-2.4630783 1.9640467 -0.26614791
-2.4543102 2.198997 -0.28628877
-2.4501567 2.2296896 -0.28700235
-2.4461718 2.2629628 -0.28810576
-2.4385803 2.5582285 -0.31560162
-2.4341364 2.5928893 -0.3165648
-2.4343147 2.632812 -0.32105044
-2.413522 2.989603 -0.34686878
-2.7085555 1.3594818 -0.23329926
-2.6975152 1.4107717 -0.23149158
-2.7023499 1.4443696 -0.23764467
-2.6970048 1.4709119 -0.23692296
-2.6984935 1.5028666 -0.24087384
-2.7004776 1.5335481 -0.24500085
-2.6986473 1.5638021 -0.24676013
-2.6971095 1.7186768 -0.26047394
-2.6908934 1.7480294 -0.25944951
-2.6913331 1.7794493 -0.26267269
-2.6865525 1.809227 -0.26255468
-2.6833928 1.8394005 -0.26345825
-2.6821148 1.9385052 -0.27194861
-2.679539 2.0038593 -0.27646855
-2.67908 2.1437984 -0.28917909
-2.6810646 2.1797357 -0.29371625
-2.6769867 2.2118697 -0.29419333
-2.6802621 2.251755 -0.29987502
-2.6708503 2.5054367 -0.31739953
-2.6732237 2.5476334 -0.32270411
-2.9172246 1.3386432 -0.23184274
-2.911094 1.3650731 -0.23049621
-2.9109175 1.394994 -0.23288368
-2.9132648 1.4274839 -0.23693945
-2.908967 1.4859426 -0.23926997
-2.9157505 1.7121481 -0.26159817
-2.9164283 1.7449421 -0.26462296
-2.9091949 1.7735825 -0.26270443
-2.9122262 2.0459182 -0.28591704
-2.907521 2.0782104 -0.28567743
-2.9129021 2.1174841 -0.29185489
-3.1203516 1.3680898 -0.22375441
-3.1257169 1.6239185 -0.24472308
-3.1391568 2.1092873 -0.28417903
-3.1513836 2.4154859 -0.30988717
-3.1489334 2.4529016 -0.31076074
-3.1527975 2.4934957 -0.31534386
-3.167681 2.872927 -0.34561372
-3.1755562 2.9240208 -0.35290626
-3.1690297 2.9607654 -0.351275
-3.3768764 1.6835014 -0.25172332
-3.3924985 2.0021057 -0.27732301
-3.4087522 2.3077669 -0.30124378
-3.4225483 2.4337425 -0.31454137
-3.4341898 2.601512 -0.32838655
-3.445488 2.8603888 -0.34557417
-3.4536681 2.9099939 -0.35201693
-3.4496346 2.9480963 -0.35140565
-3.6473408 1.3072633 -0.23368958
-3.6482639 1.3399422 -0.23592046
-3.6522763 1.3742421 -0.23974419
-3.6541152 1.4087214 -0.24247931
-3.6499026 1.4384831 -0.24194646
-3.6481004 1.4715244 -0.24275611
-3.6649253 1.6487337 -0.25988439
-3.6606784 1.6805832 -0.25928208
-3.661037 1.7150807 -0.26107526
-3.6691372 1.7540816 -0.26691347
-3.6734247 1.7923229 -0.27079085
-3.6695676 1.8261932 -0.27038124
-3.6773365 1.8648295 -0.27596784
-3.6878448 2.016679 -0.28767636
-3.6881857 2.0522511 -0.28929904
-3.6905358 2.0915496 -0.29205781
-3.6976883 2.1330929 -0.29729322
-3.698427 2.1708457 -0.29913193
-3.7061219 2.2145762 -0.30467612
-3.7094021 2.2546213 -0.30783245
-3.7237873 2.3421967 -0.31829309
-3.7209344 2.4181156 -0.31953219
-3.7199013 2.4567368 -0.32033637
-3.7290583 2.5029676 -0.32653308
-3.7304683 2.5440078 -0.32860637
-3.7355399 2.5893073 -0.33265018
-3.7422833 2.6350412 -0.33753061
-3.7504344 2.7237375 -0.34441689
-3.7533309 2.7677703 -0.34721187
-3.7640867 2.8196592 -0.35421753
-3.7643528 2.8637624 -0.35562041
-3.7697418 2.9097557 -0.35966566
-3.7742567 2.9567909 -0.3632679
-3.9488411 1.2904065 -0.2411211
-3.9548059 1.3273128 -0.24565004
-3.9508231 1.3591264 -0.24526881
-3.9590149 1.4303075 -0.25231889
-3.9647045 1.5012161 -0.25807571
-3.9644022 1.5365458 -0.2594316
-3.9745088 1.574941 -0.26576954
-3.9737754 1.6104891 -0.26687437
-3.971561 1.6444179 -0.26718929
-3.9728031 1.6791626 -0.26913431
-3.9776082 1.7191446 -0.27292922
-3.9861801 1.759204 -0.27847031
-3.9827328 1.8304076 -0.27942991
-3.995424 1.8735409 -0.28693941
-3.9981723 1.91161 -0.28954533
-4.0034823 1.952481 -0.29342845
-4.0037293 1.9907976 -0.2947984
-4.0093746 2.0301836 -0.29873228
-4.0159359 2.0715425 -0.30313444
-4.0170374 2.1111591 -0.30486012
-4.0278125 2.1556785 -0.31130055
-4.0359049 2.2376757 -0.31748271
-4.0390968 2.2797925 -0.3201516
-4.0460701 2.3222351 -0.32460386
-4.0491877 2.3637638 -0.32716084
-4.0562053 2.4093511 -0.33165428
-4.0603132 2.4522057 -0.33465627
-4.0600204 2.491236 -0.33542898
-4.0733218 2.5434268 -0.34299374
-4.0810423 2.631341 -0.34859228
-4.0897775 2.6792624 -0.35377261
-4.0951614 2.725255 -0.35726908
-4.1002359 2.7714276 -0.3605881
-4.1044593 2.8186874 -0.36348298
-4.116374 2.8707342 -0.37014821
-4.1249428 2.9208202 -0.37512827
-4.130198 2.9688866 -0.37843779
-2.2331526 1.4776387 -0.22280382
-2.3903356 2.2561185 -0.29078081
-2.3879139 2.2900591 -0.29290918
-2.3865333 2.3253095 -0.29584289
-2.3799307 2.5094342 -0.31155518
-2.3746259 2.5831921 -0.31615305
-2.376611 2.6237559 -0.32180786
-2.374846 2.6631896 -0.32494906
-2.3709092 2.6994503 -0.32636243
-2.3600142 2.9410944 -0.34556106
-2.3547733 2.9800315 -0.34643227
-2.6333027 1.6433481 -0.2524209
-2.6277244 1.7341068 -0.25746778
-2.6278579 1.7662094 -0.26052901
-2.6245646 1.7970264 -0.26137641
-2.6242909 1.8293036 -0.26419687
-2.6252134 1.8627337 -0.267849
-2.6245172 1.895208 -0.27042171
-2.6207495 1.9938656 -0.27720073
-2.6201553 2.0284953 -0.28001645
-2.620997 2.1331849 -0.2901113
-2.6185577 2.1663957 -0.29165173
-2.6194856 2.2038424 -0.29563192
-2.6206062 2.2407246 -0.2996738
-2.6128933 2.5354507 -0.32161403
-2.6129918 2.5746167 -0.32519627
-2.610265 2.6113985 -0.32682893
-2.6072705 2.8562191 -0.34687573
-2.6038787 2.8950341 -0.34824947
-2.6038787 2.9379182 -0.35206059
-2.6029999 2.9816408 -0.35540178
-2.8511696 1.3540943 -0.23117638
-2.8449476 1.3805557 -0.22973894
-2.8492329 1.413175 -0.23489144
-2.8514538 1.4457679 -0.23883583
-2.8432298 1.471445 -0.23614793
-2.8420584 1.5023744 -0.23797083
-2.8461637 1.6945702 -0.25572562
-2.847322 1.7265866 -0.25892997
-2.8471258 1.7608823 -0.26151708
-2.8478739 1.7931012 -0.26448157
-2.844723 1.824846 -0.26513031
-2.8508134 2.0680265 -0.28744867
-2.8501949 2.1036782 -0.28980231
-2.8497796 2.1387048 -0.29221776
-2.8430965 2.1701162 -0.29068926
-2.8494723 2.2473664 -0.3002286
-2.8485122 2.4325104 -0.31343558
-2.854419 2.4782131 -0.32026076
-2.8520658 2.5135617 -0.32147551
-2.8609512 2.8469861 -0.35079122
-2.8577387 2.8872914 -0.35177279
-3.0672133 1.38994 -0.23041943
-3.063693 1.4198503 -0.23058011
-3.0683024 1.8115432 -0.25961784
-3.0703838 1.9144083 -0.26742315
-3.3103788 1.3407806 -0.22904275
-3.3047729 1.3684678 -0.22779992
-3.3201265 1.7043031 -0.25534248
-3.3165393 1.7367928 -0.25524282
-3.3234391 1.8087621 -0.26278353
-3.3379245 2.1013746 -0.2855382
-3.3619583 2.4198809 -0.31342199
-3.377166 2.7542405 -0.3360658
-3.6513393 2.3185604 -0.31095648
-3.6509197 2.356921 -0.31207299
-3.6745851 2.5326934 -0.32986
-3.6743214 2.5727975 -0.33098745
-3.6964049 2.7554166 -0.34767631
-3.695647 2.7981994 -0.34850216
-3.7096112 2.8517075 -0.35711026
-3.7044566 2.8904812 -0.35552835
-3.7157109 2.9441605 -0.3627038
-3.88679 1.3416177 -0.24341868
-3.8974462 1.3809377 -0.25015882
-3.9179254 1.5985949 -0.26886776
-3.9150617 1.6674165 -0.27017882
-3.9190571 1.7048229 -0.27345943
-3.9244556 1.743202 -0.27740815
-3.9247406 1.7791815 -0.27883056
-3.9384243 1.8964566 -0.28930619
-3.939419 1.9337606 -0.29099372
-3.9493849 1.9774663 -0.29710492
-3.9514935 2.0159442 -0.29929829
-3.9545295 2.0563538 -0.30195999
-3.9629402 2.0979121 -0.307179
-3.9744658 2.1823864 -0.31504965
-3.983187 2.2263577 -0.32039624
-3.9786186 2.2636516 -0.3191981
-3.9867883 2.3079576 -0.32422924
-3.9889095 2.3475962 -0.32622433
-3.9955575 2.394067 -0.33051917
-4.000247 2.4360096 -0.33373836
-4.003686 2.4799123 -0.33637241
-4.0134735 2.5271976 -0.3420949
-4.0137577 2.568459 -0.34309414
-4.026989 2.6202066 -0.35050085
-4.0282154 2.6628368 -0.3519173
-4.0367346 2.7109499 -0.35692024
-4.0449228 2.7592828 -0.36173585
-4.046771 2.8034687 -0.36338568
-4.0522728 2.852005 -0.36684179
-4.0654411 2.9053736 -0.37405255
-2.3640764 1.4671575 -0.22709785
-2.3223786 2.4767818 -0.30825508
-2.3019874 2.9911206 -0.35014236
-2.5759101 1.3414464 -0.22587192
-2.5726213 1.3687544 -0.22641246
-2.5747774 1.4004227 -0.23066962
-2.5741081 1.4296796 -0.23297779
-2.5696237 1.7366724 -0.25851333
-2.5641785 2.1373942 -0.29150379
-2.5554245 2.4614737 -0.31508979
-2.5564325 2.5395126 -0.32262337
-2.5496082 2.5731905 -0.32142392
-2.5494506 2.6124876 -0.32479873
-2.5455687 2.8989112 -0.34758297
-2.5467844 2.943161 -0.35219583
-2.5410352 2.98159 -0.35202324
-2.7867265 1.9615631 -0.27610743
-2.789747 2.1755846 -0.29388374
-2.7930665 2.3635418 -0.30962414
-2.7935824 2.4406586 -0.31552038
-2.7968793 2.480674 -0.3203398
-2.7940278 2.5167954 -0.32126677
-2.7931108 2.5561397 -0.32354963
-2.7971585 2.8462009 -0.34643519
-2.7998557 2.9768605 -0.35710633
-2.9980798 1.324229 -0.22071879
-2.9952683 1.3532357 -0.2211908
-3.0053902 1.7099833 -0.25076476
-3.0060608 1.8454164 -0.25983107
-3.0111365 1.8816127 -0.2649366
-3.0372984 2.4854717 -0.3156592
-3.0386841 2.5660274 -0.32098639
-3.0558112 2.8706455 -0.34730399
-3.0555222 2.9115469 -0.34932482
-3.2489223 1.308851 -0.22620833
-3.2439892 1.3681903 -0.22718301
-3.2471731 1.4023635 -0.23086892
-3.2536688 1.4375173 -0.23632872
-3.2620437 1.7404442 -0.25762546
-3.2617297 1.7741035 -0.25924766
-3.2626286 1.8774974 -0.26510304
-3.2833016 2.105655 -0.28736866
-3.2822833 2.1413355 -0.28853649
-3.2982943 2.379442 -0.30800569
-3.3101373 2.426846 -0.31641263
-3.3071442 2.4634433 -0.31641901
-3.3068094 2.5023444 -0.31792369
-3.518239 1.3212354 -0.23073518
-3.5203919 1.3555735 -0.23355949
-3.5435336 1.6348873 -0.25848308
-3.5473659 1.6710736 -0.2620222
-3.5477824 1.7056535 -0.26376504
-3.5495853 1.7412021 -0.26621878
-3.5677395 2.0022616 -0.28601468
-3.5692947 2.0396674 -0.28823149
-3.5763736 2.0819182 -0.29338157
-3.5774355 2.1195903 -0.29531276
-3.5808916 2.1602027 -0.2985312
-3.6035626 2.3672626 -0.31710351
-3.6058645 2.4079323 -0.31959212
-3.6398733 2.7599733 -0.34731165
-3.8447309 1.4870669 -0.25754273
-3.8481727 1.5231138 -0.26060095
-3.8460875 1.5578009 -0.26098433
-3.849108 1.5940551 -0.26379648
-3.8489919 1.6279263 -0.2650167
-3.8783135 1.8597364 -0.28690711
-3.8785167 1.9343029 -0.28936023
-3.921349 2.2654269 -0.31886306
-3.927958 2.3087914 -0.32306445
-3.9531384 2.527154 -0.33988485
-3.9651537 2.6191533 -0.34742126
-3.969954 2.6630096 -0.35052174
-3.9734197 2.7088466 -0.35298288
-3.9816325 2.7571807 -0.35774291
-3.9844651 2.80337 -0.3598384
-3.999505 2.8576109 -0.36792481
-4.003715 2.9043856 -0.37062946
-4.0120673 2.9546893 -0.3753573
-2.2730155 2.2012935 -0.28586498
-2.2709842 2.2351472 -0.2881459
-2.5215516 1.3830926 -0.23413956
-2.517693 1.4112529 -0.23437683
-2.5113888 1.4362172 -0.23282707
-2.5131068 1.4681475 -0.23679864
-2.5076263 1.4947921 -0.2358965
-2.513696 1.5290571 -0.24272527
-2.516264 1.562266 -0.2473191
-2.5146165 1.5919936 -0.24902214
-2.5105014 1.7145926 -0.25763568
-2.5061173 1.7443433 -0.25765079
-2.5072298 1.7782606 -0.26139081
-2.5046585 1.8077785 -0.26248208
-2.4998791 1.9381362 -0.27127063
-2.5010068 2.1112289 -0.28740251
-2.5027943 2.1478558 -0.29174936
-2.4984825 2.1807232 -0.29202858
-2.4970965 2.2152653 -0.29424131
-2.4999537 2.2527018 -0.29930085
-2.4960518 2.4749124 -0.31647363
-2.494024 2.5114825 -0.31843558
-2.4876151 2.9588327 -0.35337293
-2.4890509 3.0053627 -0.35826504
-2.7271008 1.3321148 -0.22797453
-2.7289777 1.3621829 -0.23146068
-2.7288184 1.3922032 -0.23375407
-2.7296646 1.4239106 -0.23675598
-2.7264442 1.4515822 -0.23707072
-2.7249694 1.7044895 -0.25586024
-2.7315776 1.7412626 -0.26251832
-2.7262158 1.7702518 -0.26160559
-2.731884 2.0461471 -0.28560534
-2.7342596 2.0839705 -0.2897853
-2.7311749 2.116828 -0.29040161
-2.7401047 2.6547275 -0.33417717
-2.7452033 2.7830422 -0.34610385
-2.7443056 2.8237669 -0.34839165
-2.7442291 2.9081278 -0.35414901
-2.7444592 2.9525321 -0.35732308
-2.7469049 2.9996786 -0.36197817
-2.9405503 1.3954226 -0.22766268
-2.9559336 2.1075428 -0.28147781
-2.9840457 2.5434861 -0.322209
-2.9845641 2.5821979 -0.32463586
-2.9855063 2.6654425 -0.32971251
-2.9995167 2.8426869 -0.34707513
-3.000221 2.8855641 -0.34972823
-2.9941759 2.9251432 -0.34839237
-2.9961855 2.9687362 -0.35178795
-3.1976368 1.7137061 -0.25405398
-3.2257957 2.1179957 -0.28906694
-3.23173 2.1597183 -0.29416311
-3.2239861 2.1922512 -0.29155385
-3.2518508 2.4787688 -0.31902468
-3.2499857 2.5166481 -0.31962457
-3.2521884 2.5580001 -0.32252234
-3.2762301 2.8692656 -0.34773552
-3.2760758 2.9118042 -0.3492552
-3.2811596 2.9593158 -0.35375682
-3.463187 1.2995406 -0.23251881
-3.467205 1.4326917 -0.24112666
-3.4686878 1.4674233 -0.24352877
-3.4686842 1.5006101 -0.24509633
-3.4810348 1.6779636 -0.25926411
-3.4833841 1.7126005 -0.26193252
-3.4819634 1.7464211 -0.26266253
-3.4910593 1.7873944 -0.26892105
-3.4880195 1.8196751 -0.2687327
-3.5138125 2.0527272 -0.29072106
-3.5161717 2.0921617 -0.29334897
-3.5187151 2.1308818 -0.29601946
-3.5414045 2.3769379 -0.31574169
-3.5531516 2.4231272 -0.323136
-3.5546131 2.4648983 -0.32516205
-3.5592775 2.5080917 -0.32882801
-3.5777011 2.7273917 -0.3443853
-3.5855677 2.8190188 -0.3507849
-3.7682664 1.2831846 -0.24146332
-3.7678735 1.3164459 -0.24273787
-3.7823811 1.3563076 -0.25123182
-3.7856717 1.4962277 -0.25850144
-3.7811337 1.5275656 -0.25759092
-3.7839768 1.5646323 -0.26033795
-3.791537 1.6042204 -0.26536477
-3.7975678 1.6422937 -0.2695891
-3.8017268 1.6797011 -0.27287972
-3.7991242 1.7139138 -0.2728447
-3.8028467 1.7515453 -0.27588072
-3.819912 1.8713593 -0.28782424
-3.8210685 1.9086683 -0.28952017
-3.8247991 1.9487591 -0.29248965
-3.83552 1.9908267 -0.2988013
-3.8291526 2.0257521 -0.29677194
-3.8385024 2.0699449 -0.30243313
-3.8590088 2.235625 -0.31644544
-3.8653588 2.2798071 -0.32052341
-3.8656368 2.3193305 -0.32156193
-3.8827872 2.36991 -0.33088559
-3.9059176 2.6313133 -0.34707224
-3.9597111 2.9730091 -0.37804404
-4.1049266 1.4432225 -0.25734654
-4.1123137 1.4818782 -0.26189509
-4.110662 1.517935 -0.26233447
-4.1226573 1.559117 -0.26893154
-4.1484547 1.7932395 -0.28695646
-4.1504035 1.8315907 -0.28877652
-4.2228098 2.3023221 -0.33025616
-4.2439346 2.4388328 -0.34155098
-4.2463527 2.4830723 -0.34313405
-4.2521458 2.5284667 -0.34621993
-4.2592216 2.5750332 -0.34986147
-4.264421 2.6207848 -0.35260648
-4.2781925 2.6737709 -0.35926715
-4.283287 2.7189546 -0.36188498
-4.2932434 2.7703788 -0.36671916
-4.2966461 2.8178627 -0.36850086
-4.3054609 2.8667376 -0.37272322
-4.3220654 2.9241607 -0.3805019
-2.2006454 2.5813103 -0.31849885
-2.2014923 2.6206942 -0.32312372
-2.4391422 2.1207769 -0.28799725
-2.4368036 2.1540668 -0.28946185
-2.4391985 2.1927342 -0.29428101
-2.4368529 2.2255144 -0.29568794
-2.4387314 2.2644434 -0.30020449
-2.4341393 2.296927 -0.30020428
-2.4346421 2.3342128 -0.30372882
-2.4317744 2.3699272 -0.30505207
-2.4374809 2.4889386 -0.31876829
-2.4309921 2.5226116 -0.31768152
-2.4326293 2.8503995 -0.3465884
-2.4305625 2.8906398 -0.34872606
-2.6610396 1.3352553 -0.22668508
-2.661036 1.3652318 -0.2290156
-2.6589968 1.3951381 -0.23015141
-2.6680944 1.4298502 -0.23810983
-2.6641545 1.4590466 -0.2380724
-2.6634121 1.4893616 -0.23996638
-2.6610267 1.5509378 -0.24327944
-2.6645813 1.6151302 -0.25020745
-2.6665893 1.68121 -0.25634456
-2.6656117 1.7137951 -0.25821382
-2.6706915 1.749686 -0.26384383
-2.6667428 1.7797493 -0.26377895
-2.6669955 1.8128763 -0.26637769
-2.6675127 1.8819116 -0.27175999
-2.6660829 1.913568 -0.27324486
-2.6699972 2.0910692 -0.2883828
-2.6682773 2.1250811 -0.2898159
-2.6739974 2.2751446 -0.30381396
-2.6783438 2.4295745 -0.3171671
-2.6785505 2.4680247 -0.31995606
-2.6824629 2.8365877 -0.34736729
-2.6862097 2.9694867 -0.35843852
-2.8868265 1.7631897 -0.25606585
-2.8894482 1.7972349 -0.25960782
-2.9387326 2.8982856 -0.34825948
-2.9411669 2.944663 -0.35196403
-2.9411752 2.9879148 -0.3541303
-3.1197317 1.3499094 -0.22558141
-3.1835237 2.4439812 -0.31226894
-3.20226 2.6588523 -0.3307972
-3.2130952 2.7928538 -0.34165096
-3.2219081 2.8848701 -0.34973574
-3.4137058 1.5436329 -0.25001627
-3.4148734 1.5779227 -0.25210476
-3.4478099 2.0199776 -0.28604293
-3.4452968 2.0572953 -0.28609875
-3.4577703 2.1009293 -0.29387575
-3.4551964 2.1376352 -0.29382896
-3.465579 2.2196155 -0.30176115
-3.4718928 2.2618682 -0.30629712
-3.4901662 2.3916082 -0.31951192
-3.4937296 2.474329 -0.32372615
-3.5013199 2.5197587 -0.32885244
-3.5021482 2.5619149 -0.33043435
-3.5106087 2.6088111 -0.33599111
-3.5245965 2.786973 -0.34762388
-3.5329151 2.8359799 -0.35303238
-3.5379958 2.8829088 -0.35671425
-3.543633 2.9320512 -0.36070374
-3.5428822 2.9738071 -0.36123732
-3.7028251 1.3551012 -0.24241355
-3.7217486 1.5000423 -0.25691965
-3.7231016 1.5363225 -0.25889423
-3.7179918 1.5686473 -0.25766373
-3.7275324 1.6082089 -0.2635417
-3.7348096 1.6480439 -0.26833633
-3.7395585 1.7214644 -0.27301434
-3.7432339 1.7591858 -0.27595618
-3.7466795 1.7970369 -0.27876568
-3.7592192 1.8410984 -0.28602815
-3.7686329 1.8827682 -0.29171279
-3.7580378 1.9149044 -0.28762794
-3.764163 1.9541758 -0.29163009
-3.7676044 1.994489 -0.29436022
-3.7760043 2.0367973 -0.29946497
-3.7857208 2.0802302 -0.30519372
-3.7883656 2.1210287 -0.30746606
-3.7848673 2.1572723 -0.30667594
-3.7973771 2.20224 -0.31368187
-3.8034997 2.2472565 -0.31761554
-3.7997429 2.2829134 -0.31659895
-3.8151417 2.3332562 -0.32501054
-3.8166533 2.3740211 -0.32655719
-3.8241119 2.4189348 -0.33099988
-3.8578975 2.6483741 -0.35115364
-3.867558 2.6985545 -0.35655263
-3.869832 2.7426813 -0.35827115
-3.8773081 2.7922075 -0.36254099
-4.0408211 1.3771135 -0.25318483
-4.0461836 1.4866849 -0.25908998
-4.0533042 1.5255606 -0.26341578
-4.0500698 1.5600877 -0.26300457
-4.0580654 1.6009219 -0.26770547
-4.0615053 1.6377485 -0.27024415
-4.0876765 1.8375651 -0.28681019
-4.1155787 2.0053699 -0.30270317
-4.1424708 2.1777401 -0.31765437
-4.1518531 2.2228701 -0.32252625
-4.1971488 2.539557 -0.34642223
-4.2088861 2.5892363 -0.35210994
-4.2124352 2.6341231 -0.35401058
-4.2592592 2.8849893 -0.37629983
-2.3880448 1.3782995 -0.234038
-2.3716626 1.7394704 -0.2556006
-2.3721795 1.7710273 -0.25864446
-2.3700194 1.8354754 -0.26288739
-2.3710151 2.4780173 -0.3180863
-2.3732016 2.521033 -0.32302895
-2.3701591 2.5953064 -0.32737842
-2.3718753 2.7187774 -0.33871734
-2.3671827 2.8395717 -0.34586468
-2.3664672 2.8811378 -0.34886536
-2.3690372 2.9699545 -0.35777485
-2.6009331 1.9038507 -0.27437222
-2.6010365 1.9398997 -0.27699843
-2.6078882 1.9780735 -0.28369847
-2.6038651 2.0453799 -0.28609884
-2.6067109 2.0825703 -0.29036751
-2.6027675 2.1514981 -0.29287279
-2.6061773 2.374176 -0.31016818
-2.6102288 2.4559066 -0.3180753
-2.6089313 2.493289 -0.31983241
-2.6249671 2.7896729 -0.3489081
-2.6183321 2.8262398 -0.34740177
-2.6203218 2.8689837 -0.35135689
-2.6229992 2.958437 -0.3587302
-2.8222327 1.7864516 -0.25954619
-2.8273122 1.8582084 -0.2665998
-2.8211019 1.8891784 -0.26496232
-2.8274121 2.0311534 -0.27662602
-2.8322473 2.1425724 -0.28556836
-2.8316238 2.1793964 -0.28725785
-2.8589272 2.5830352 -0.32398927
-2.8760223 2.8445945 -0.34672821
-3.0524123 1.3405118 -0.22614014
-3.0512986 1.3715338 -0.22726049
-3.0720468 1.7101681 -0.25571266
-3.0719318 1.743891 -0.2573024
-3.0731616 1.7786276 -0.25963154
-3.1021748 2.1166956 -0.29041997
-3.1229 2.4351163 -0.31458893
-3.1518664 2.7831063 -0.34304062
-3.1503909 2.8251348 -0.34372321
-3.3487914 1.6351202 -0.25548446
-3.4360814 2.5476968 -0.32935137
-3.4485116 2.6383803 -0.33793294
-3.4577119 2.7716069 -0.34574375
-3.4690869 2.8228652 -0.35268205
-3.4809918 2.876404 -0.35991326
-3.4771814 2.9166284 -0.35881317
-3.4851778 2.9653821 -0.3638953
-3.6583228 1.4551123 -0.25740063
-3.6553192 1.4881666 -0.257193
-3.6584144 1.5252532 -0.25995886
-3.6666026 1.5639372 -0.26513997
-3.6560454 1.5949045 -0.26123086
-3.6765904 1.6745096 -0.2734839
-3.6756613 1.7096729 -0.274151
-3.6810575 1.7482654 -0.27787438
-3.67769 1.7836484 -0.27734056
-3.6874943 1.8250725 -0.28316844
-3.6986496 1.8675776 -0.28963581
-3.6865301 1.8988609 -0.28476277
-3.6959898 1.9398888 -0.29033032
-3.7011445 1.9811052 -0.29383528
-3.7144535 2.0261478 -0.30127159
-3.7147031 2.064069 -0.30230823
-3.7274413 2.1095467 -0.30942497
-3.7235837 2.1467514 -0.30843294
-3.7381544 2.2329917 -0.31722179
-3.7418792 2.2744474 -0.3198396
-3.7484684 2.3180137 -0.32383576
-3.7652113 2.3696218 -0.33280388
-3.7582753 2.4065046 -0.33014789
-3.7791855 2.5424223 -0.3424021
-3.7845273 2.5861554 -0.34561983
-3.792625 2.6359546 -0.35021815
-3.7973692 2.6800489 -0.3530916
-3.810396 2.7316504 -0.36002174
-3.8167553 2.8235075 -0.36414757
-3.8397031 2.9722707 -0.37668839
-3.966094 1.3258458 -0.24849142
-3.9798222 1.4738218 -0.25918093
-3.985343 1.5119739 -0.26272383
-3.990283 1.5512049 -0.26600662
-4.0014291 1.6653706 -0.27392474
-4.0112462 1.7448994 -0.28017226
-4.0242023 1.824759 -0.28768247
-4.0259781 1.8633204 -0.28926602
-4.030829 1.903671 -0.29222
-4.0366688 1.9459645 -0.29561514
-4.0426579 1.9874767 -0.29902688
-4.0516644 2.0308969 -0.30378473
-4.0583296 2.0745842 -0.30746216
-4.0812154 2.2056875 -0.31957114
-4.1155424 2.3479106 -0.33663169
-4.1358604 2.5261352 -0.34726825
-4.1409063 2.572809 -0.34983173
-4.1519341 2.6236746 -0.35509196
-4.1542435 2.666769 -0.35631886
-4.168263 2.7191505 -0.36286843
-4.2000957 2.9186301 -0.37760487
-2.3015065 1.7899276 -0.25754431
-2.2995341 1.8220422 -0.25901487
-2.2981524 1.852833 -0.26073125
-2.301398 1.8893546 -0.26573473
-2.2987895 1.921729 -0.26682666
-2.3045635 2.1324313 -0.28768972
-2.3014295 2.2743328 -0.29737091
-2.3025186 2.9109533 -0.34925231
-2.2994576 2.9494467 -0.35043928
-2.5276413 1.7535874 -0.2589536
-2.5332632 2.0994699 -0.28578141
-2.5453897 2.5206714 -0.32040671
-2.5502515 2.6436176 -0.3310807
-2.5480499 2.7648299 -0.33742431
-2.5542111 2.8541541 -0.34660628
-2.770973 2.2807968 -0.29323414
-2.7873726 2.5240989 -0.31455186
-2.7955141 2.6502805 -0.32520562
-2.8121643 2.9168873 -0.34698942
-2.9979346 1.7596909 -0.25225809
-3.0046651 1.8322607 -0.25905585
-3.0518603 2.4557467 -0.30902365
-3.0656321 2.5452108 -0.31953552
-3.0672231 2.5876684 -0.32186249
-3.2554274 1.3374649 -0.22791104
-3.2607985 1.37359 -0.2321272
-3.2646408 1.4082434 -0.23550202
-3.2664709 1.4763545 -0.23923925
-3.2759516 1.5480918 -0.24681856
-3.2886837 1.6923189 -0.25864199
-3.284219 1.7245346 -0.25759819
-3.2859478 1.7603153 -0.25973988
-3.3205709 2.0703077 -0.28719279
-3.3357205 2.2312417 -0.29943895
-3.5760665 1.3288214 -0.24328354
-3.590683 1.5074192 -0.25629023
-3.5872643 1.5754632 -0.25685385
-3.5964487 1.6160785 -0.26239797
-3.6469283 2.0076191 -0.29637459
-3.6779649 2.258786 -0.31605795
-3.6815624 2.300415 -0.31847957
-3.6848967 2.3421874 -0.32074741
-3.6941998 2.3880911 -0.32589507
-3.6964951 2.4310946 -0.32762411
-3.71033 2.4795337 -0.33491114
-3.7155051 2.5664816 -0.33850193
-3.7202222 2.6112797 -0.34128526
-3.7256529 2.6582184 -0.34440303
-3.7348542 2.7056382 -0.34930471
-3.7472196 2.7583442 -0.35574698
-3.7441087 2.8004682 -0.35461265
-3.7538533 2.8495929 -0.35969663
-3.9142733 1.4912965 -0.25701073
-3.9146378 1.5273589 -0.25809935
-3.923243 1.5672593 -0.2628811
-3.927587 1.643133 -0.2665711
-3.9434621 1.7624911 -0.27609944
-3.952673 1.8032143 -0.28096178
-3.964159 1.847669 -0.28686741
-3.9658275 1.8863927 -0.2882767
-3.9726291 1.9268129 -0.29196218
-3.9746466 1.9685295 -0.29350334
-3.9788873 2.0093377 -0.29598311
-3.9943361 2.0564289 -0.30351281
-3.9947803 2.0958111 -0.30420831
-3.9998734 2.1379828 -0.30697942
-4.0226712 2.2291727 -0.31813383
-4.0227928 2.2719412 -0.31857279
-4.0300107 2.3166544 -0.32217476
-4.0618515 2.5022225 -0.33759141
-4.0840816 2.6007035 -0.34794685
-4.0871048 2.646739 -0.34939671
-4.098712 2.6960723 -0.35470319
-4.1083961 2.7485707 -0.35909966
-4.1262751 2.8473232 -0.36709955
-2.2300687 1.3732915 -0.22707163
-2.2262964 1.4016104 -0.22710168
-2.2288301 2.2975175 -0.30022183
-2.2240605 2.561343 -0.31783766
-2.2210505 2.5990834 -0.31891957
-2.2294402 2.8967834 -0.34691039
-2.2247136 2.9347062 -0.34691963
-2.4483562 1.7687061 -0.25810683
-2.4458048 1.7999539 -0.25869286
-2.4445269 1.8322743 -0.26007855
-2.4470162 1.8684773 -0.26389492
-2.4583442 2.1554217 -0.28894129
-2.4544315 2.1894124 -0.28881326
-2.4711208 2.5051804 -0.31813207
-2.4687161 2.5409091 -0.31890571
-2.4798148 2.9225121 -0.34818661
-2.4831879 3.0138719 -0.35550129
-2.742677 2.9897807 -0.34963071
-2.9260364 1.7775029 -0.25410211
-2.9540555 2.153527 -0.28370202
-2.998817 2.6132345 -0.32308641
-3.030925 2.9784431 -0.35093942
-3.2295747 1.9299835 -0.27312008
-3.2550058 2.1681769 -0.29239309
-3.4748287 1.2970303 -0.22953929
-3.4878376 1.3362658 -0.23691262
-3.4993854 1.4103721 -0.24470034
-3.5033226 1.4464465 -0.24766479
-3.5169325 1.591953 -0.25828043
-3.517781 1.6287088 -0.25967968
-3.5195718 1.700714 -0.26239318
-3.5266578 1.7773715 -0.2675904
-3.5665774 1.9843057 -0.29085103
-3.5701864 2.0630281 -0.29403698
-3.6074257 2.3197241 -0.31571189
-3.6739984 2.7792892 -0.35188138
-3.683387 2.8293388 -0.35666361
-3.6963866 2.8838458 -0.36317289
-3.7020597 2.9321671 -0.36609259
-3.8377433 1.6139435 -0.25739941
-3.9497232 2.2899857 -0.31555453
-3.9738636 2.342344 -0.32663238
-3.9647968 2.381813 -0.32271302
-3.9918976 2.4812305 -0.33515108
-3.9972978 2.5278876 -0.33763662
-4.043643 2.7743261 -0.35820997
-4.0560389 2.8713119 -0.36338943
-4.065619 2.9227388 -0.36744297
-2.3653383 1.4349531 -0.23002899
-2.3852105 2.257524 -0.29335633
-2.400686 2.5370615 -0.3188771
-2.40116 2.5780318 -0.32153356
-2.3978288 2.6147523 -0.32171479
-2.3955934 2.6527679 -0.32260048
-2.4056005 2.7011964 -0.33121836
-2.4065835 2.7868242 -0.33667311
-2.4107461 2.9186218 -0.34653866
-2.4096692 2.9592853 -0.34818307
-2.617398 2.1766758 -0.28136984
-2.625767 2.3323276 -0.29313725
-2.6465507 2.5813696 -0.31562725
-2.6487308 2.6244011 -0.31867516
-2.6705563 2.9804828 -0.34544149
-2.8385484 1.5250707 -0.2344958
-2.8871956 2.2235427 -0.28677928
-2.9207907 2.5588329 -0.31508243
-2.9383101 2.7774725 -0.33055249
-2.9494278 2.8738699 -0.33902806
-3.226418 2.5427921 -0.31921017
-3.2342052 2.5878875 -0.32390991
-3.25016 2.7264977 -0.33417216
-3.4441645 1.6160423 -0.25692621
-3.443248 1.6521089 -0.25737154
-3.4457819 1.6890017 -0.25941908
-3.4497349 1.7268399 -0.26212421
-3.4663208 1.8454911 -0.27238956
-3.4754062 1.8882871 -0.27748552
-3.4700758 1.9224089 -0.2756125
-3.4905598 2.0097532 -0.28677362
-3.4921453 2.0496213 -0.28816473
-3.5183499 2.2190661 -0.30295295
-3.5233643 2.2625315 -0.30585998
-3.5381768 2.3511016 -0.31386843
-3.5557761 2.4012449 -0.32272971
-3.5605304 2.486903 -0.32574287
-3.7417438 1.410629 -0.24060212
-3.7753797 1.642938 -0.25995409
-3.7799561 1.6818677 -0.26261008
-3.7855966 1.7226713 -0.26572955
-3.9734302 2.7607584 -0.35389295
-4.0014687 2.9144115 -0.36549249
-4.188693 1.889699 -0.28257909
-4.2298679 2.1116011 -0.30021158
-2.274658 1.381842 -0.22068827
-2.2775416 1.4139304 -0.22440326
-2.3260894 2.723608 -0.32960787
-2.3263803 2.7637265 -0.33195984
-2.3344636 2.9426761 -0.34630409
-2.3358746 2.9860351 -0.34943575
-2.5655985 2.5999706 -0.31264815
-2.5710015 2.6446805 -0.31743824
-2.5741818 2.6891763 -0.32096687
-2.578949 2.7342525 -0.32538739
-2.5847924 2.8225152 -0.33205187
-2.7405205 1.4944205 -0.22292791
-2.771452 1.8163259 -0.25159898
-2.7734931 1.8532684 -0.25400627
-2.7679954 1.8847346 -0.25224933
-2.7684646 1.9200882 -0.25373876
-2.8109858 2.2788973 -0.28777325
-2.8145108 2.3205421 -0.29088175
-2.8829677 2.9469824 -0.34356034
-3.0102825 1.3781974 -0.21924487
-3.1394615 2.5139217 -0.31129736
-3.1677003 2.698617 -0.32813156
-3.193202 2.8896081 -0.34324658
-3.2025146 2.9405148 -0.34848011
-3.2094522 2.9913776 -0.35248125
-3.3538992 1.660642 -0.25098169
-3.4072876 1.9833654 -0.28174701
-3.4131374 2.0232103 -0.28506768
-3.4098735 2.0604272 -0.28403226
-3.4402637 2.2339795 -0.3003732
-3.4504204 2.2795539 -0.30561459
-3.4698176 2.371371 -0.31557748
-3.4707644 2.4135273 -0.31633106
-3.4781549 2.4589245 -0.32013524
-3.4816468 2.503396 -0.32204831
-3.504178 2.6433539 -0.3333658
-3.5419087 2.8865776 -0.35169592
-3.6676514 1.4966975 -0.24272765
-3.6915598 1.6527901 -0.2557317
-3.7017274 1.7326663 -0.2612671
-3.7261572 1.8584563 -0.27341759
-3.7420325 1.9814944 -0.28144255
-3.7662339 2.0734284 -0.29271495
-3.7895439 2.2053106 -0.3035492
-3.8178716 2.3869298 -0.31625807
-3.8915272 2.7754328 -0.34739912
-4.1134057 1.9037356 -0.28073823
-4.197608 2.2741716 -0.31504667
-4.2444367 2.5157893 -0.33257091
-4.2594333 2.5666857 -0.3382906
-4.2665739 2.6161242 -0.34066239
-4.3419952 2.9348032 -0.36739579
-2.2005212 1.4712758 -0.22710849
-2.2351077 2.274761 -0.29311991
-2.235589 2.3884342 -0.29953694
-2.5043375 2.7301037 -0.32150558
-2.5144627 2.8221095 -0.33043885
-2.5301859 3.009136 -0.34570238
-2.7373965 2.2366736 -0.28418067
-2.7438185 2.3181064 -0.28980449
-2.7525132 2.3615644 -0.29555228
-2.7538521 2.4425719 -0.29836372
-2.7682226 2.5324185 -0.3082042
-2.8037865 2.8503542 -0.33428693
-2.8031914 2.891293 -0.3348203
-2.8146989 2.9468157 -0.34207252
-3.0205312 2.1619604 -0.27956939
-3.0775344 2.5150797 -0.31349847
-3.1311951 2.8926017 -0.34440038
-3.2469649 1.3561516 -0.22698258
-3.398464 2.3654773 -0.31272411
-3.4520319 2.7371213 -0.33892679
-3.4714143 2.8374472 -0.34801248
-3.4845665 2.8921807 -0.35415077
-3.5695462 1.297946 -0.22642328
-3.6210167 1.6085993 -0.25403309
-3.6208017 1.6452647 -0.25438812
-3.6623538 1.9311152 -0.27510783
-3.7586153 2.3854201 -0.31813812
-3.7663815 2.4328701 -0.32140139
-3.8026593 2.6247294 -0.33639291
-3.8262365 2.7279944 -0.34604222
-3.8338382 2.7769489 -0.34894705
-3.8421376 2.8281305 -0.35210204
-3.9339654 1.2752732 -0.22868159
-3.9354999 1.3134893 -0.22989607
-3.974726 1.5530788 -0.24871711
-3.9923525 1.6364645 -0.25656462
-4.0148115 1.7631315 -0.26639608
-4.0662308 2.0275371 -0.28761724
-4.1400967 2.3133173 -0.31654862
-2.6529431 2.2498505 -0.2858856
-2.8997185 1.7839077 -0.25546172
-2.8968441 1.816704 -0.25475004
-2.9412951 2.1771197 -0.28342152
-2.9830508 2.4793591 -0.30824947
-3.2674363 2.0724955 -0.28916937
-3.2648215 2.1082354 -0.28821138
-3.3222764 2.4237466 -0.31674984
-3.5003235 1.3808514 -0.23640846
