# .PCD v0.7 - Point Cloud Data file format
VERSION 0.7
FIELDS x y z intensity
SIZE 4 4 4 4
TYPE F F F F
COUNT 1 1 1 1
WIDTH 1170
HEIGHT 1
VIEWPOINT 0 0 0 1 0 0 0
POINTS 1170
DATA ascii
2.2061481 -1.6958978 -0.39107642 1.1
2.1866677 -1.7016615 -0.38940632 1.1
2.1534905 -1.6958476 -0.38523114 2.0999999
2.1300435 -1.6967424 -0.38272601 2.0999999
2.1122286 -1.7031367 -0.3813343 1.1
2.0993152 -1.7127699 -0.3807776 2.0999999
2.0830059 -1.7201527 -0.37966421 1.1
2.0566456 -1.7177937 -0.37660241 1.1
2.0403659 -1.7248534 -0.37548903 1.1
2.0153465 -1.7237033 -0.37270558 0.1
1.9889109 -1.7210267 -0.36964375 0.1
1.9667435 -1.7223603 -0.36741698 0.1
1.9452323 -1.7228127 -0.36519021 1.1
1.9231761 -1.7237504 -0.36296344 1.1
1.8985442 -1.7214948 -0.36017999 1.1
1.8710836 -1.7163354 -0.35683984 0.1
1.8550596 -1.7220187 -0.35572645 1.1
1.8378921 -1.7258955 -0.35433471 1.1
1.8196074 -1.7279505 -0.35266465 1.1
1.7936131 -1.7236223 -0.34960282 1.1
1.7737153 -1.7242606 -0.3476544 1.1
1.7510457 -1.7219497 -0.34514928 1.1
1.7323735 -1.7239281 -0.34347922 1.1
1.7098535 -1.7212315 -0.34097409 1.1
1.6912849 -1.7228675 -0.33930403 2.0999999
1.6730582 -1.7240521 -0.33763394 2.0999999
1.6600565 -1.7310909 -0.33707726 2.0999999
1.636433 -1.7262499 -0.33429378 2.0999999
1.6199938 -1.7281379 -0.33290204 2.0999999
1.6029807 -1.7304559 -0.33151034 2.0999999
1.5796124 -1.725053 -0.32872686 2.0999999
1.5640326 -1.7285217 -0.32761347 2.0999999
1.5503925 -1.732802 -0.32677844 2.0999999
1.5243407 -1.7241662 -0.32343829 2.0999999
1.5039589 -1.7209865 -0.32121152 2.0999999
1.4904391 -1.7248635 -0.32037649 2.0999999
1.4248066 -1.7284286 -0.31480956 3.0999999
1.3970469 -1.7357141 -0.31313947 1.1
1.3845609 -1.7406317 -0.31258279 2.0999999
1.3760421 -1.7498943 -0.31286114 2.0999999
1.364419 -1.756465 -0.31258279 2.0999999
1.3301609 -1.7328731 -0.30701587 3.0999999
1.3141738 -1.7326156 -0.30562413 3.0999999
1.2982341 -1.7322317 -0.30423239 3.0999999
1.284397 -1.7351295 -0.30339736 3.0999999
1.2705714 -1.7379242 -0.30256233 3.0999999
1.2535827 -1.7355801 -0.30089223 3.0999999
1.2421114 -1.741376 -0.30061391 4.0999999
1.2274981 -1.7420253 -0.29950052 5.0999999
1.2166179 -1.7472284 -0.29922217 6.0999999
1.2039841 -1.751153 -0.29866546 6.0999999
1.1883152 -1.7498661 -0.29727376 6.0999999
1.1768074 -1.7552419 -0.2969954 7.0999999
1.1658922 -1.7601359 -0.29671705 7.0999999
1.154343 -1.7653657 -0.29643869 3.0999999
1.1455401 -1.7734489 -0.29671705 3.0999999
1.1342418 -1.7783475 -0.29643869 3.0999999
1.1236689 -1.7850468 -0.29643869 3.0999999
1.116819 -1.7963406 -0.29727376 2.0999999
1.105104 -1.8012482 -0.2969954 2.0999999
1.0916333 -1.802501 -0.29616037 2.0999999
1.0812336 -1.8087584 -0.29616037 3.0999999
1.0704813 -1.8151426 -0.29616037 3.0999999
1.0600091 -1.8212781 -0.29616037 4.0999999
1.0468607 -1.822018 -0.29532531 6.0999999
1.043842 -1.8419828 -0.29755208 11.1
1.0245169 -1.8324062 -0.29504699 11.1
1.0177723 -1.8452134 -0.29616037 17.1
1.0027167 -1.8421712 -0.29476863 19.1
0.99364036 -1.8515793 -0.29532531 28.1
0.97985703 -1.8521911 -0.29449028 29.1
0.96367675 -1.8472681 -0.29282022 34.099998
0.95573908 -1.8580714 -0.29365525 48.099998
0.94380081 -1.8619436 -0.29337689 51.099998
0.93250155 -1.8654141 -0.29309854 59.099998
0.92141557 -1.8709149 -0.29309854 56.099998
0.90889508 -1.8726273 -0.29254186 57.099998
0.89980352 -1.8814045 -0.29309854 70.099998
0.88876623 -1.884454 -0.29282022 77.099998
0.87473661 -1.8844587 -0.29198515 80.099998
0.86222142 -1.8858631 -0.29142848 82.099998
0.85182816 -1.8927524 -0.29170683 86.099998
0.84091264 -1.8976272 -0.29170683 88.099998
0.82917726 -1.9006237 -0.29142848 88.099998
0.81743526 -1.903548 -0.29115012 88.099998
0.80612504 -1.9083652 -0.29115012 88.099998
0.79469377 -1.9110091 -0.29087177 89.099998
0.78333968 -1.9156911 -0.29087177 89.099998
0.77155411 -1.9183335 -0.29059345 89.099998
0.76194942 -1.926429 -0.29115012 90.099998
0.75117838 -1.9306544 -0.29115012 90.099998
0.74078447 -1.9389073 -0.29170683 89.099998
0.72787404 -1.9395605 -0.29115012 87.099998
0.71874648 -1.9492953 -0.29198515 70.099998
0.70750749 -1.9534026 -0.29198515 56.099998
0.69656682 -1.9594327 -0.29226351 35.099998
0.68822432 -1.9707718 -0.29337689 26.1
0.67972672 -1.9841893 -0.29476863 4.0999999
0.66954952 -1.9918259 -0.29532531 1.1
0.66896421 -2.027508 -0.3000572 1.1
0.66484308 -2.0559399 -0.30367571 1.1
0.65502405 -2.0674009 -0.3047891 1.1
0.64839166 -2.0881624 -0.30729422 1.1
0.64017957 -2.1031194 -0.30896428 1.1
0.62918752 -2.1105676 -0.30952099 0.1
0.62201506 -2.1312675 -0.31202608 1.1
0.61027348 -2.136719 -0.31230444 1.1
0.5866642 -2.147428 -0.31286114 0.1
0.5765003 -2.2116361 -0.32121152 1.1
0.57645422 -2.2648227 -0.3284485 1.1
0.56729853 -2.2855034 -0.33095363 2.0999999
0.56111628 -2.3176067 -0.33512881 2.0999999
0.55230808 -2.340076 -0.33791229 2.0999999
0.5468387 -2.3799868 -0.34320086 2.0999999
0.54133713 -2.4198194 -0.34848943 2.0999999
0.52739489 -2.4897437 -0.35767487 2.0999999
0.51982355 -2.6085703 -0.37381896 3.0999999
0.51672614 -2.7584391 -0.39441657 3.0999999
0.52239597 -2.9747977 -0.42447796 1.1
1.6255244 -1.7147425 -1.2563059 3.0999999
1.6171299 -1.7250828 -1.2572448 3.0999999
1.6020644 -1.7294666 -1.253489 3.0999999
1.5873066 -1.7334557 -1.2497333 3.0999999
1.5601689 -1.7437285 -1.2440996 7.0999999
1.542776 -1.7450181 -1.238466 2.0999999
1.4983296 -1.7555591 -1.2271987 3.0999999
1.4691406 -1.7409571 -1.2112366 5.0999999
1.4630944 -1.7529476 -1.2140535 10.1
1.446339 -1.7759167 -1.2178092 32.099998
1.4302402 -1.777589 -1.2131145 4.0999999
1.413384 -1.7775038 -1.2074809 2.0999999
1.3990692 -1.7798166 -1.2037251 2.0999999
1.3765694 -1.7727451 -1.1933967 2.0999999
1.3512862 -1.7610304 -1.1802515 2.0999999
1.3304517 -1.7547126 -1.1708621 2.0999999
1.3132176 -1.7522242 -1.1642895 2.0999999
1.2975434 -1.7528894 -1.1595948 3.0999999
1.2756546 -1.7448771 -1.1492664 3.0999999
1.2573119 -1.7407432 -1.1417549 2.0999999
1.2397819 -1.7381099 -1.1351823 2.0999999
1.2287333 -1.7437782 -1.1342432 2.0999999
1.2179661 -1.7491643 -1.1333044 3.0999999
1.2025626 -1.7490853 -1.1286097 2.0999999
1.1885004 -1.750139 -1.1248538 2.0999999
1.1820276 -1.7630279 -1.1286097 3.0999999
1.169237 -1.7651854 -1.1257929 3.0999999
1.1703387 -1.7898283 -1.1370602 2.0999999
1.1705476 -1.812858 -1.1473885 2.0999999
1.1752763 -1.8433939 -1.1624116 2.0999999
1.172781 -1.8637872 -1.1708621 2.0999999
1.104562 -1.7773176 -1.1126477 1.1
1.0903031 -1.7778195 -1.1088918 0.1
1.0745584 -1.7750058 -1.1032581 0.1
1.0634115 -1.7796495 -1.1023192 0.1
1.0474515 -1.7768011 -1.0966855 0.1
1.0318724 -1.7736462 -1.0910519 1.1
1.0228299 -1.780913 -1.0919908 1.1
1.0113734 -1.7854147 -1.0910519 0.1
1.000212 -1.7896686 -1.0901129 1.1
0.98477197 -1.7861211 -1.0844793 1.1
0.96887332 -1.7807351 -1.0779067 2.0999999
0.95912397 -1.7880093 -1.0788456 2.0999999
0.95014793 -1.7967914 -1.0807235 1.1
0.93080199 -1.7850103 -1.0703951 2.0999999
0.91404599 -1.7777779 -1.0628836 2.0999999
0.89271796 -1.7866092 -1.0619447 5.0999999
0.88054049 -1.7887064 -1.0600668 6.0999999
0.87099457 -1.7953371 -1.0610057 5.0999999
0.86292464 -1.8051035 -1.0638225 5.0999999
0.85239249 -1.8081486 -1.0628836 3.0999999
0.84058809 -1.8117199 -1.0619447 3.0999999
0.83087343 -1.8181374 -1.0628836 3.0999999
0.82079428 -1.8246464 -1.0638225 2.0999999
0.81241697 -1.8341873 -1.0666394 2.0999999
0.80183941 -1.8388361 -1.0666394 2.0999999
0.79123521 -1.8434237 -1.0666394 2.0999999
0.77959538 -1.8464597 -1.0657004 2.0999999
0.77537066 -1.8654609 -1.0741509 2.0999999
0.76295102 -1.8667598 -1.072273 1.1
0.76074922 -1.8924232 -1.0844793 1.1
0.75178468 -1.9017 -1.0872961 1.1
0.74179196 -1.9075149 -1.0882351 1.1
0.73361081 -1.9201312 -1.0929298 1.1
0.7228241 -1.9261039 -1.0938687 0.1
0.71660596 -1.94349 -1.1013802 0.1
0.70660317 -1.9509058 -1.1032581 0.1
0.6979714 -1.9633839 -1.1079528 0.1
0.69048816 -1.9772544 -1.1135865 0.1
0.68217659 -1.9913405 -1.1192203 0.1
0.6763227 -2.011975 -1.1286097 0.1
0.67392814 -2.0425525 -1.1436328 0.1
0.66994578 -2.0717192 -1.1577169 0.1
0.66457397 -2.0975428 -1.1699232 0.1
0.65981328 -2.1249461 -1.1830684 0.1
0.67274666 -2.2114942 -1.2290765 0.1
0.69428384 -2.3304145 -1.2929246 1.1
0.691728 -2.3716702 -1.3135815 0.1
2.6364064 -1.7285038 -0.36866233 1.1
2.5723898 -1.7065042 -0.36099637 1.1
2.5401876 -1.7082225 -0.35797647 1.1
2.4892571 -1.6948748 -0.35216892 1.1
2.4611671 -1.6972115 -0.34961361 1.1
2.426919 -1.6943018 -0.34612909 1.1
2.3865924 -1.6860522 -0.34171537 1.1
2.3700826 -1.6955615 -0.34078616 2.0999999
2.336144 -1.6917077 -0.33730164 1.1
2.3023291 -1.6875198 -0.33381712 1.1
2.2811084 -1.6928655 -0.33219099 2.0999999
2.2573211 -1.6948447 -0.3301003 3.0999999
2.2314098 -1.6961888 -0.32777727 2.0999999
2.2153056 -1.7041678 -0.32684806 2.0999999
2.1926155 -1.7075194 -0.32498965 2.0999999
2.1718233 -1.7115128 -0.32336354 2.0999999
2.145144 -1.7099953 -0.32080823 1.1
2.1210454 -1.7114677 -0.31871751 1.1
2.0942266 -1.7098362 -0.3161622 1.1
2.0702622 -1.7108448 -0.31407151 1.1
2.0484815 -1.712189 -0.31221309 1.1
2.0291855 -1.7166167 -0.31081927 1.1
2.0041733 -1.7153587 -0.30849627 1.1
1.9777416 -1.7125695 -0.30594096 1.1
1.9570866 -1.7151107 -0.30431482 1.1
1.9266644 -1.7075683 -0.30106261 1.1
1.9091038 -1.7123394 -0.2999011 1.1
1.8859696 -1.7112929 -0.29781041 1.1
1.8702285 -1.7167536 -0.2968812 2.0999999
1.8439988 -1.7129498 -0.29432589 2.0999999
1.8268644 -1.7167403 -0.29316437 2.0999999
1.8057281 -1.7159694 -0.29130596 2.0999999
1.7897862 -1.7211468 -0.29037675 2.0999999
1.7670287 -1.7189604 -0.28828603 2.0999999
1.7415242 -1.7137827 -0.28573072 2.0999999
1.7313238 -1.7240869 -0.28573072 2.0999999
1.7076706 -1.7196341 -0.28340772 2.0999999
1.6876966 -1.7198126 -0.28178158 2.0999999
1.6680812 -1.7195238 -0.28015548 2.0999999
1.6550987 -1.7265241 -0.27969089 2.0999999
1.6328298 -1.7230511 -0.27760017 3.0999999
1.6150311 -1.7234466 -0.27620637 3.0999999
1.5953279 -1.7227974 -0.27458024 3.0999999
1.5826963 -1.7290266 -0.27411565 3.0999999
1.564413 -1.7295488 -0.27272186 3.0999999
1.5481075 -1.7308559 -0.27156034 3.0999999
1.5259697 -1.7266159 -0.26946962 3.0999999
1.4775534 -1.7318281 -0.26621741 1.1
1.4576112 -1.7279062 -0.264359 3.0999999
1.4335173 -1.7402328 -0.2636621 4.0999999
1.4272331 -1.7530819 -0.264359 2.0999999
1.426765 -1.7739036 -0.26621741 2.0999999
1.3930392 -1.7525457 -0.26180369 3.0999999
1.3496162 -1.7386612 -0.25738996 4.0999999
1.3323258 -1.7369485 -0.25599614 4.0999999
1.3198999 -1.7414269 -0.25553155 4.0999999
1.3077712 -1.7455919 -0.25506693 4.0999999
1.2938449 -1.7485311 -0.25437003 4.0999999
1.2787578 -1.7497629 -0.25344083 4.0999999
1.2640074 -1.7506567 -0.25251162 4.0999999
1.2535967 -1.7581266 -0.25251162 4.0999999
1.2457377 -1.7685657 -0.25297624 4.0999999
1.2358408 -1.7754956 -0.25297624 4.0999999
1.2230328 -1.7795237 -0.25251162 4.0999999
1.2105318 -1.7832513 -0.25204703 4.0999999
1.2032464 -1.7953537 -0.25274393 4.0999999
1.1899104 -1.7970769 -0.25204703 4.0999999
1.1781386 -1.8024436 -0.25181472 4.0999999
1.1655833 -1.8058612 -0.2513501 5.0999999
1.1583658 -1.8175701 -0.25204703 5.0999999
1.1454445 -1.8210489 -0.25158241 6.0999999
1.1342078 -1.8257304 -0.2513501 9.1000004
1.1202391 -1.8273481 -0.25065321 10.1
1.1096958 -1.8337699 -0.25065321 9.1000004
1.0980971 -1.8384254 -0.2504209 15.1
1.0851514 -1.8414865 -0.24995631 18.1
1.07253 -1.8442715 -0.24949171 19.1
1.0602349 -1.8467873 -0.2490271 21.1
1.050236 -1.854775 -0.2492594 22.1
1.0356606 -1.8538563 -0.24833019 24.1
1.0259249 -1.8615302 -0.2485625 26.1
1.012665 -1.8619958 -0.24786559 27.1
1.0006592 -1.8662215 -0.24763329 27.1
0.988639 -1.8703705 -0.24740098 34.099998
0.97693193 -1.874272 -0.24716869 37.099998
0.96612072 -1.8798677 -0.24716869 38.099998
0.95315343 -1.8820233 -0.24670409 42.099998
0.93996459 -1.8819859 -0.24600719 48.099998
0.9305343 -1.8910954 -0.24647179 63.099998
0.91789347 -1.8928486 -0.24600719 60.099998
0.90526336 -1.8945192 -0.24554259 68.099998
0.89499986 -1.8993894 -0.24554259 71.099998
0.88338053 -1.9048212 -0.24554259 79.099998
0.87156957 -1.9080706 -0.24531028 82.099998
0.85941696 -1.9113972 -0.24507798 85.099998
0.84758973 -1.9144989 -0.24484567 90.099998
0.83813643 -1.9229909 -0.24531028 99.099998
0.82626379 -1.9259608 -0.24507798 99.099998
0.81482041 -1.93083 -0.24507798 99.099998
0.80326182 -1.9335163 -0.24484567 99.099998
0.79177403 -1.9382488 -0.24484567 99.099998
0.77985686 -1.9409337 -0.24461338 99.099998
0.77012497 -1.9490881 -0.24507798 99.099998
0.75850761 -1.9515073 -0.24484567 99.099998
0.74762249 -1.9578297 -0.24507798 88.099998
0.73668903 -1.9640917 -0.24531028 76.099998
0.72536451 -1.9683021 -0.24531028 66.099998
0.71469206 -1.974315 -0.24554259 43.099998
0.70362878 -1.9803932 -0.24577488 21.1
0.68913496 -2.0127985 -0.24879479 1.1
0.68828517 -2.0487459 -0.25274393 1.1
0.67745423 -2.0544446 -0.25297624 1.1
0.67074901 -2.0754404 -0.25506693 1.1
0.66201931 -2.0907469 -0.25646076 2.0999999
0.65349895 -2.1059084 -0.25785455 2.0999999
0.64482582 -2.1210408 -0.25924838 2.0999999
0.63940102 -2.1475658 -0.26203597 2.0999999
0.62980074 -2.1607485 -0.26319748 2.0999999
0.60929292 -2.1851866 -0.2652882 1.1
0.60805863 -2.2288003 -0.27016652 2.0999999
0.60249388 -2.2611618 -0.27365106 2.0999999
0.5939641 -2.2818959 -0.27574176 2.0999999
0.58961916 -2.3199337 -0.2799232 2.0999999
0.58301026 -2.3523135 -0.28340772 3.0999999
0.56589943 -2.4014101 -0.28851834 3.0999999
0.55510026 -2.4833758 -0.2975781 3.0999999
0.55849224 -2.5700958 -0.30756706 4.0999999
0.55115962 -2.6041746 -0.31128389 4.0999999
0.55288678 -2.6910696 -0.32127285 5.0999999
0.54962564 -2.7606366 -0.32917109 4.0999999
0.54890156 -2.8397272 -0.33823085 5.0999999
0.55433089 -2.9620409 -0.35240123 7.0999999
1.6985395 -1.7110363 -1.2110004 3.0999999
1.6820984 -1.7147064 -1.206512 3.0999999
1.6684619 -1.720517 -1.2038188 3.0999999
1.6545132 -1.7265165 -1.2011257 5.0999999
1.603443 -1.7523055 -1.1930465 75.099998
1.5954138 -1.7644409 -1.1948419 31.1
1.5867257 -1.7746562 -1.1957395 11.1
1.538301 -1.7411809 -1.167013 8.1000004
1.520018 -1.7405888 -1.1607292 12.1
1.5286525 -1.770961 -1.1750923 4.0999999
1.4902825 -1.7473655 -1.1535475 4.0999999
1.4732691 -1.7663909 -1.1553429 5.0999999
1.548484 -1.8804665 -1.2235683 6.0999999
1.5455245 -1.899057 -1.2298522 7.0999999
1.5902218 -1.9778371 -1.2747374 7.0999999
1.5354425 -1.9323916 -1.2397269 4.0999999
1.358596 -1.7508603 -1.113151 29.1
1.3397894 -1.74731 -1.1059693 11.1
1.331862 -1.7578467 -1.1077647 11.1
1.3177383 -1.7595357 -1.1041739 7.0999999
1.29452 -1.7500821 -1.0934014 5.0999999
1.2746235 -1.7447449 -1.0853221 5.0999999
1.2614156 -1.7477096 -1.082629 3.0999999
1.2427237 -1.7435213 -1.0754474 3.0999999
1.219285 -1.731653 -1.0637773 2.0999999
1.2055117 -1.7325675 -1.0601865 2.0999999
1.1941972 -1.7382176 -1.0592887 2.0999999
1.1811554 -1.7406301 -1.0565957 2.0999999
1.1708056 -1.7476087 -1.0565957 3.0999999
1.1535301 -1.7654675 -1.0592887 3.0999999
1.1510941 -1.7840962 -1.0664704 3.0999999
1.1504021 -1.8057696 -1.0754474 3.0999999
1.1472768 -1.8246683 -1.082629 3.0999999
1.0946401 -1.7627248 -1.0422324 1.1
1.0692196 -1.7448078 -1.0278692 1.1
1.0702529 -1.7692876 -1.0386416 1.1
1.0554638 -1.7677499 -1.0341531 2.0999999
1.0386057 -1.7632025 -1.0278692 3.0999999
1.014062 -1.7444334 -1.0135059 3.0999999
0.99807668 -1.739219 -1.0072221 3.0999999
0.97331417 -1.742969 -1.0027335 6.0999999
0.964984 -1.7516768 -1.0045289 7.0999999
0.95262498 -1.7523284 -1.0018358 6.0999999
0.94220978 -1.7579504 -1.0018358 5.0999999
0.93092644 -1.7619305 -1.0009381 5.0999999
0.92241466 -1.7704329 -1.0027335 4.0999999
0.91220248 -1.7757163 -1.0027335 3.0999999
0.8992275 -1.7763145 -1.0000404 3.0999999
0.88929272 -1.781309 -1.0000404 3.0999999
0.87949544 -1.7881584 -1.0009381 3.0999999
0.86918181 -1.7931943 -1.0009381 3.0999999
0.85806918 -1.7965579 -1.0000404 3.0999999
0.84833634 -1.8011743 -1.0000404 3.0999999
0.83506292 -1.8014584 -0.9973473 2.0999999
0.82393122 -1.8046123 -0.99644959 2.0999999
0.81687105 -1.8176205 -1.0009381 3.0999999
0.80277276 -1.8141235 -0.99644959 2.0999999
0.79159707 -1.8170786 -0.99555188 2.0999999
0.78323144 -1.8265353 -0.998245 2.0999999
0.77376801 -1.8344444 -1.0000404 2.0999999
0.76419592 -1.8403878 -1.0009381 2.0999999
0.75731486 -1.854818 -1.0063243 2.0999999
0.74462128 -1.8541735 -1.0036312 2.0999999
0.73524266 -1.8617561 -1.0054266 2.0999999
0.72548038 -1.8674992 -1.0063243 2.0999999
0.71629757 -1.8767806 -1.0090175 2.0999999
0.70828474 -1.8893657 -1.0135059 2.0999999
0.70542127 -1.9152156 -1.025176 2.0999999
0.69741899 -1.9276497 -1.0296646 1.1
0.68895811 -1.9401753 -1.0341531 1.1
0.68105465 -1.9524304 -1.0386416 1.1
0.670614 -1.9598193 -1.040437 1.1
0.66272837 -1.9738148 -1.0458232 0.1
0.65784758 -1.9961569 -1.0556979 0.1
0.64983582 -2.0119305 -1.0619819 0.1
0.64705199 -2.044718 -1.0772429 0.1
0.6379115 -2.0569458 -1.0817313 0.1
0.63488615 -2.0896564 -1.0969923 0.1
0.65036333 -2.18578 -1.1454682 1.1
0.64376122 -2.2100804 -1.1562406 2.0999999
0.63984007 -2.244689 -1.1723993 2.0999999
0.63802183 -2.2897654 -1.1939441 1.1
0.66001034 -2.4208899 -1.2603741 0.1
2.7541831 -1.7176645 -0.30282772 0.1
2.7122562 -1.7132924 -0.29929781 0.1
2.685569 -1.7181536 -0.29743996 0.1
2.6385634 -1.7102313 -0.29335272 0.1
2.6039963 -1.7085547 -0.29056597 0.1
2.5598745 -1.6994888 -0.28666452 0.1
2.527669 -1.7010857 -0.28424931 0.1
2.4947906 -1.6999172 -0.28164834 0.1
2.4584358 -1.6965946 -0.27867579 0.1
2.4290345 -1.6970402 -0.2764464 1.1
2.3967543 -1.6944858 -0.2738454 1.1
2.3720844 -1.6982455 -0.27217337 1.1
2.3429141 -1.6978573 -0.26994395 2.0999999
2.318645 -1.7007232 -0.26827189 1.1
2.3101106 -1.7156396 -0.26845768 1.1
2.2797964 -1.7129642 -0.2660425 1.1
2.255327 -1.7156118 -0.26437044 0.1
2.2390966 -1.7237141 -0.26362732 0.1
2.2146924 -1.7259541 -0.26195526 0.1
2.1828241 -1.7214175 -0.25935426 0.1
2.160722 -1.7236472 -0.25786799 0.1
2.14116 -1.7289326 -0.2567533 0.1
2.1049509 -1.7198172 -0.25359496 0.1
2.0839663 -1.7233943 -0.25229448 1.1
2.0590339 -1.7222302 -0.25043666 0.1
2.0305393 -1.7189785 -0.24820724 0.1
2.0130429 -1.7241679 -0.24727833 1.1
1.9925445 -1.7266051 -0.24597783 1.1
1.9642975 -1.7226427 -0.24374843 1.1
1.9382578 -1.7190518 -0.24170481 1.1
1.9206129 -1.7238727 -0.2407759 1.1
1.9047552 -1.7295513 -0.24003276 1.1
1.8859631 -1.7324103 -0.23891805 1.1
1.8596059 -1.7286574 -0.23687443 1.1
1.8409147 -1.7311541 -0.23575972 1.1
1.8124579 -1.7235692 -0.23334454 1.1
1.7964587 -1.7287709 -0.2326014 1.1
1.7793375 -1.7321438 -0.23167248 1.1
1.7608184 -1.7339797 -0.23055778 2.0999999
1.7392133 -1.733153 -0.22907151 2.0999999
1.7168823 -1.730118 -0.22739945 2.0999999
1.6898543 -1.7232141 -0.22517005 2.0999999
1.672971 -1.7257694 -0.22424112 2.0999999
1.6530578 -1.7256005 -0.22294064 2.0999999
1.6348763 -1.7264173 -0.22182594 2.0999999
1.6156807 -1.7253464 -0.22052544 2.0999999
1.6013564 -1.7305189 -0.2199681 2.0999999
1.5792663 -1.7264892 -0.21829604 2.0999999
1.5596461 -1.7254891 -0.21699555 3.0999999
1.5393686 -1.7222949 -0.21550928 3.0999999
1.5264848 -1.7284142 -0.21513772 3.0999999
1.5125759 -1.732677 -0.21458037 3.0999999
1.4960667 -1.7338216 -0.21365145 3.0999999
1.4844598 -1.7411535 -0.21346566 3.0999999
1.463161 -1.7357141 -0.2117936 3.0999999
1.4524733 -1.7420757 -0.21160783 3.0999999
1.4364365 -1.7450175 -0.21086469 3.0999999
1.4213353 -1.7470829 -0.21012156 3.0999999
1.4059529 -1.7492778 -0.20937842 3.0999999
1.3933774 -1.7542279 -0.20900685 3.0999999
1.3798687 -1.7572839 -0.2084495 3.0999999
1.363314 -1.7575738 -0.20752057 3.0999999
1.3507458 -1.7622359 -0.20714901 3.0999999
1.3393713 -1.7683989 -0.20696323 3.0999999
1.3282804 -1.7742577 -0.20677744 3.0999999
1.3177285 -1.7821085 -0.20677744 3.0999999
1.3047813 -1.7866803 -0.20640588 3.0999999
1.2956343 -1.7957805 -0.20659167 3.0999999
1.2861106 -1.8050591 -0.20677744 3.0999999
1.2722545 -1.8075513 -0.20622009 3.0999999
1.2610024 -1.8129939 -0.2060343 4.0999999
1.244585 -1.8122373 -0.20510539 5.0999999
1.2374803 -1.8243195 -0.20566274 6.0999999
1.2222005 -1.8250122 -0.20491961 7.0999999
1.2141864 -1.8351313 -0.20529117 7.0999999
1.1989194 -1.8356352 -0.20454803 7.0999999
1.1861684 -1.8391629 -0.20417647 9.1000004
1.1734167 -1.8426049 -0.2038049 9.1000004
1.1624619 -1.8495356 -0.2038049 10.1
1.1500136 -1.8526154 -0.20343333 10.1
1.1348391 -1.8526146 -0.2026902 11.1
1.1313627 -1.8710485 -0.20399068 6.0999999
1.1144441 -1.8672738 -0.20287599 13.1
1.0993024 -1.8669902 -0.20213285 13.1
1.0865302 -1.8698472 -0.20176128 14.1
1.0770609 -1.8776137 -0.20194706 16.1
1.0609971 -1.875306 -0.20101814 17.1
1.0472668 -1.8761694 -0.20046079 17.1
1.0374041 -1.8839145 -0.20064658 18.1
1.0268662 -1.889679 -0.20064658 20.1
1.0137538 -1.8922286 -0.200275 21.1
0.99971741 -1.8929284 -0.19971766 21.1
0.98879844 -1.8986549 -0.19971766 25.1
0.97784662 -1.9043185 -0.19971766 28.1
0.96383172 -1.9047571 -0.19916031 28.1
0.9522894 -1.9083287 -0.19897452 31.1
0.941827 -1.915733 -0.19916031 30.1
0.93164587 -1.9229178 -0.1993461 33.099998
0.91712362 -1.9210635 -0.19860296 34.099998
0.90671629 -1.9259975 -0.19860296 38.099998
0.89074832 -1.9224663 -0.19767404 38.099998
0.87966102 -1.9275646 -0.19767404 42.099998
0.86820716 -1.9327507 -0.19767404 49.099998
0.85706097 -1.9377191 -0.19767404 55.099998
0.84509134 -1.9407974 -0.19748825 42.099998
0.83468372 -1.947463 -0.19767404 57.099998
0.82156539 -1.9487119 -0.19730246 51.099998
0.8114323 -1.9551092 -0.19748825 57.099998
0.80056864 -1.9617336 -0.19767404 57.099998
0.78925669 -1.9663121 -0.19767404 60.099998
0.77718735 -1.9689729 -0.19748825 51.099998
0.76762003 -1.9769955 -0.19785982 49.099998
0.7551651 -1.9796551 -0.19767404 42.099998
0.7427057 -1.9822367 -0.19748825 39.099998
0.73196453 -1.9883503 -0.19767404 29.1
0.73878372 -2.0430956 -0.2026902 9.1000004
0.72797889 -2.0511968 -0.20306176 1.1
0.71061164 -2.0383074 -0.20138972 0.1
0.71396863 -2.0877094 -0.20584853 1.1
0.70700067 -2.1068902 -0.2073348 1.1
0.69459963 -2.1089146 -0.20714901 1.1
0.68757844 -2.130055 -0.20882107 1.1
0.67973018 -2.1492867 -0.21030733 1.1
0.67028755 -2.1626766 -0.21123625 1.1
0.66360599 -2.1855557 -0.2130941 1.1
0.65668285 -2.2084291 -0.21495193 1.1
0.64784843 -2.2255588 -0.21625242 1.1
0.64320266 -2.2579806 -0.21903917 1.1
0.63459986 -2.2790229 -0.22071123 1.1
0.62971336 -2.3113515 -0.22349799 1.1
0.62366718 -2.3439136 -0.22628474 1.1
0.61717021 -2.374449 -0.22888573 1.1
0.61181152 -2.4107771 -0.23204406 2.0999999
0.5919897 -2.4526103 -0.23538816 2.0999999
0.58460969 -2.5504942 -0.24412 2.0999999
0.58682543 -2.6296172 -0.25136557 3.0999999
0.58303177 -2.6875436 -0.25656751 3.0999999
0.58494812 -2.7685924 -0.26399887 6.0999999
0.58131123 -2.8344388 -0.26994395 5.0999999
0.5849461 -2.9434075 -0.27997628 9.1000004
1.7665049 -1.720252 -1.1671234 2.0999999
1.7308116 -1.7050254 -1.1500102 3.0999999
1.7065805 -1.7012275 -1.1405979 3.0999999
1.6970525 -1.7107323 -1.1405979 4.0999999
1.6455477 -1.7578555 -1.1397423 102.1
1.6370786 -1.7903181 -1.1482989 9.1000004
1.6336975 -1.808049 -1.1534328 10.1
1.6320051 -1.8265811 -1.1594225 7.0999999
1.6259229 -1.8416541 -1.1628451 6.0999999
1.5154476 -1.7365782 -1.0909696 5.0999999
1.4959748 -1.734327 -1.0841242 5.0999999
1.4712385 -1.7459146 -1.0807016 14.1
1.4582986 -1.7496831 -1.0781345 7.0999999
1.4039661 -1.7474303 -1.0610213 19.1
1.3871338 -1.7469933 -1.0558873 6.0999999
1.3650773 -1.7390716 -1.0464751 7.0999999
1.3325541 -1.739131 -1.0370628 14.1
1.3246977 -1.7496594 -1.0387741 8.1000004
1.3159883 -1.7584779 -1.0396298 7.0999999
1.3066047 -1.7677099 -1.0404854 5.0999999
1.2918285 -1.769592 -1.0370628 4.0999999
1.2509493 -1.734484 -1.0122485 6.0999999
1.2332937 -1.7315698 -1.006259 3.0999999
1.2160186 -1.7282951 -1.0002693 2.0999999
1.2063471 -1.7350597 -1.0002693 3.0999999
1.1898911 -1.7332457 -0.99513531 3.0999999
1.1768451 -1.7355816 -0.99256831 3.0999999
1.1665252 -1.7425346 -0.99256831 3.0999999
1.1557777 -1.7475147 -0.99171269 3.0999999
1.1463758 -1.7558562 -0.99256831 3.0999999
1.1470186 -1.7791423 -1.0019807 3.0999999
1.1445185 -1.7979187 -1.0088259 3.0999999
1.1011319 -1.7526355 -0.97973341 3.0999999
1.0713106 -1.7265012 -0.96176451 2.0999999
1.0553826 -1.7235781 -0.95663053 2.0999999
1.0435679 -1.7265339 -0.95491922 2.0999999
1.0317541 -1.7294109 -0.95320785 3.0999999
1.013221 -1.7214818 -0.94550693 3.0999999
1.0051051 -1.7304153 -0.94721824 3.0999999
0.97976667 -1.7324371 -0.94208425 5.0999999
0.96977234 -1.7380514 -0.94208425 3.0999999
0.95974588 -1.7436081 -0.94208425 3.0999999
0.94912994 -1.7473526 -0.94122863 3.0999999
0.93703753 -1.7497668 -0.93951726 3.0999999
0.92748165 -1.7568952 -0.94037294 4.0999999
0.91651267 -1.7606044 -0.93951726 3.0999999
0.90718263 -1.7674621 -0.94037294 3.0999999
0.89504653 -1.7695881 -0.93866163 3.0999999
0.88514942 -1.7745594 -0.93866163 3.0999999
0.87619799 -1.7830255 -0.94037294 3.0999999
0.86197448 -1.7799076 -0.93609464 3.0999999
0.8493731 -1.7799481 -0.93352765 3.0999999
0.84126961 -1.787789 -0.93523896 3.0999999
0.8326121 -1.7978157 -0.93780595 3.0999999
0.81849253 -1.7943579 -0.93352765 3.0999999
0.80708981 -1.7975341 -0.93267196 3.0999999
0.79891622 -1.8071128 -0.93523896 3.0999999
0.78705204 -1.8083693 -0.93352765 3.0999999
0.77662355 -1.8128723 -0.93352765 3.0999999
0.76585215 -1.817449 -0.93352765 3.0999999
0.75499707 -1.8200282 -0.93267196 3.0999999
0.74486631 -1.8261502 -0.93352765 3.0999999
0.73366302 -1.8287323 -0.93267196 3.0999999
0.72378159 -1.834609 -0.93352765 2.0999999
0.71548599 -1.8436786 -0.93609464 2.0999999
0.70324486 -1.8445137 -0.93438327 2.0999999
0.69799262 -1.8638904 -0.94208425 2.0999999
0.68974268 -1.8746657 -0.94550693 2.0999999
0.68016285 -1.8820075 -0.94721824 2.0999999
0.66958719 -1.8877141 -0.94807392 2.0999999
0.6626026 -1.9016668 -0.95320785 2.0999999
0.65598357 -1.9192498 -0.96005315 2.0999999
0.64779258 -1.9315655 -0.96433151 2.0999999
0.64999455 -1.9746463 -0.98401171 2.0999999
0.63993043 -1.9836298 -0.9865787 2.0999999
0.63305128 -2.0029054 -0.99427968 2.0999999
0.62685353 -2.0237861 -1.0028363 1.1
0.62306058 -2.0533104 -1.0156713 1.1
0.62203765 -2.0932543 -1.0336401 2.0999999
0.61047608 -2.0985379 -1.0344958 2.0999999
0.6038236 -2.1211443 -1.0439081 1.1
0.60091817 -2.1595211 -1.0610213 0.1
0.61876506 -2.2727299 -1.114928 1.1
0.63128066 -2.3741946 -1.1628451 2.0999999
0.6244126 -2.404036 -1.17568 2.0999999
0.61633277 -2.4303718 -1.1868037 0.1
2.8654165 -1.7196745 -0.23368418 0.1
2.8227744 -1.7169486 -0.23103344 0.1
2.7961535 -1.722224 -0.22963831 0.1
2.7401865 -1.7102642 -0.22587146 0.1
2.6999354 -1.7068284 -0.22336023 0.1
2.6648564 -1.7062135 -0.22126754 0.1
2.6178606 -1.6981105 -0.21819825 0.1
2.5769441 -1.6914486 -0.2155475 0.1
2.5577829 -1.6987436 -0.21471043 0.1
2.518924 -1.6958393 -0.2123387 1.1
2.4959264 -1.7013291 -0.2112226 1.1
2.467726 -1.7036418 -0.20968796 1.1
2.4529669 -1.7143978 -0.20926942 1.1
2.4303224 -1.7188545 -0.20815332 0.1
2.4038596 -1.721629 -0.20675819 0.1
2.3761353 -1.7225645 -0.20522355 0.1
2.3436551 -1.7196972 -0.20327036 0.1
2.3205967 -1.7240558 -0.20215426 0.1
2.2886038 -1.720207 -0.20020108 0.1
2.2640665 -1.7228837 -0.19894546 0.1
2.2256529 -1.7139834 -0.19643423 0.1
2.2091489 -1.7222537 -0.19587618 0.1
2.1944938 -1.7312417 -0.19545764 0.1
2.1536014 -1.718582 -0.19266738 0.1
2.1371572 -1.7263168 -0.19210933 0.1
2.1070964 -1.7221835 -0.19029567 0.1
2.0906909 -1.7295698 -0.1897376 0.1
2.0641668 -1.727136 -0.18820296 0.1
2.0386562 -1.7264609 -0.18680784 1.1
2.0180733 -1.7290872 -0.18583125 1.1
1.9990357 -1.7328408 -0.18499416 1.1
1.9737198 -1.7315154 -0.18359904 1.1
1.9535716 -1.733243 -0.18262245 1.1
1.9269221 -1.7301428 -0.18108781 1.1
1.9095411 -1.7345051 -0.18039024 1.1
1.8862978 -1.7333249 -0.17913462 1.1
1.8642906 -1.7336187 -0.17801853 1.1
1.8455557 -1.7361253 -0.17718144 1.1
1.8199296 -1.7312794 -0.1756468 2.0999999
1.8009999 -1.7337465 -0.17480972 2.0999999
1.7809789 -1.7343471 -0.17383313 2.0999999
1.7652751 -1.7389755 -0.17327508 2.0999999
1.7379689 -1.7325175 -0.17160092 2.0999999
1.723747 -1.7382487 -0.17118238 2.0999999
1.7064197 -1.741322 -0.17048483 2.0999999
1.6699867 -1.7238945 -0.16783407 2.0999999
1.6473106 -1.7208031 -0.16657846 2.0999999
1.6291442 -1.7215675 -0.16574138 3.0999999
1.6126877 -1.7233557 -0.16504382 3.0999999
1.6010783 -1.7314303 -0.16490431 3.0999999
1.5843489 -1.73326 -0.16420674 3.0999999
1.5686865 -1.736709 -0.16364869 3.0999999
1.5549753 -1.740979 -0.16323015 2.0999999
1.5340554 -1.7382087 -0.16211404 2.0999999
1.5187724 -1.7410015 -0.16155599 2.0999999
1.4999032 -1.7388813 -0.1605794 3.0999999
1.4921465 -1.7507882 -0.16085842 3.0999999
1.4784881 -1.7545177 -0.16043989 3.0999999
1.4561999 -1.7471653 -0.15904476 3.0999999
1.4489967 -1.760902 -0.1594633 3.0999999
1.4375718 -1.7676706 -0.15932378 3.0999999
1.4220585 -1.7699488 -0.15876573 3.0999999
1.4155627 -1.7827975 -0.15918428 3.0999999
1.401888 -1.7859674 -0.15876573 3.0999999
1.3924878 -1.7958316 -0.15890525 3.0999999
1.3760543 -1.7959034 -0.15820768 3.0999999
1.358462 -1.7942551 -0.15737061 3.0999999
1.3528858 -1.8084399 -0.15792866 4.0999999
1.337388 -1.8100176 -0.15737061 4.0999999
1.3195672 -1.8082521 -0.15653352 4.0999999
1.3102974 -1.8174406 -0.15667304 4.0999999
1.2994895 -1.825184 -0.15667304 4.0999999
1.2843646 -1.8261106 -0.156115 5.0999999
1.2684524 -1.8250638 -0.15541743 5.0999999
1.2575999 -1.8325588 -0.15541743 5.0999999
1.2492632 -1.8430746 -0.15569645 5.0999999
1.2327563 -1.8421649 -0.15499888 5.0999999
1.2202479 -1.8456925 -0.15471986 6.0999999
1.2049123 -1.8462179 -0.15416181 6.0999999
1.1913391 -1.847888 -0.15374327 6.0999999
1.1828191 -1.858085 -0.15402229 7.0999999
1.168588 -1.8600031 -0.15360376 7.0999999
1.1550258 -1.8614149 -0.15318522 7.0999999
1.141876 -1.8648332 -0.15290619 7.0999999
1.1362767 -1.8799163 -0.15360376 3.0999999
1.1203194 -1.8778627 -0.15290619 4.0999999
1.1040963 -1.8758806 -0.15220863 3.0999999
1.09628 -1.8873842 -0.15262717 2.0999999
1.0837369 -1.890016 -0.15234815 2.0999999
1.0774131 -1.9050969 -0.1530457 2.0999999
1.0576736 -1.8955903 -0.15179008 2.0999999
1.0515486 -1.9103898 -0.15248765 2.0999999
1.0380057 -1.9109733 -0.15206911 2.0999999
1.0285313 -1.9206169 -0.15234815 2.0999999
1.0161847 -1.9249221 -0.15220863 2.0999999
1.0041599 -1.9289733 -0.15206911 2.0999999
0.99394429 -1.9364997 -0.15220863 2.0999999
0.98333591 -1.9441441 -0.15234815 2.0999999
0.96890032 -1.9424644 -0.15179008 1.1
0.97319514 -1.9804106 -0.15430132 2.0999999
0.96264231 -1.9877785 -0.15444084 2.0999999
0.95203686 -1.9950906 -0.15458034 1.1
0.94377697 -2.0056281 -0.15499888 0.1
0.93150777 -2.0113559 -0.15499888 1.1
0.91907978 -2.0148723 -0.15485938 1.1
0.89648342 -1.9966298 -0.1530457 2.0999999
0.8527239 -1.9592601 -0.14941837 4.0999999
0.84063959 -1.9623049 -0.14927885 3.0999999
0.8141579 -1.9626437 -0.1485813 26.1
0.80626464 -1.9766773 -0.14927885 27.1
0.79412365 -1.9794365 -0.14913934 30.1
0.78197759 -1.9821216 -0.14899983 28.1
0.76945156 -1.9827381 -0.1487208 24.1
0.75874633 -1.9911301 -0.14899983 19.1
0.74901551 -2.0012031 -0.14941837 16.1
0.74849445 -2.0354445 -0.15165058 6.0999999
0.7153089 -2.0177314 -0.14969739 25.1
0.70534092 -2.0254631 -0.14997642 28.1
0.69137442 -2.0239491 -0.14955787 26.1
0.68097401 -2.0316808 -0.14983691 19.1
0.67086333 -2.039243 -0.15011594 16.1
0.66242385 -2.0545812 -0.15095301 8.1000004
0.6502201 -2.058476 -0.15095301 6.0999999
0.63835341 -2.0621867 -0.15095301 3.0999999
0.62914342 -2.0733564 -0.15151106 2.0999999
0.62401116 -2.0998952 -0.15318522 2.0999999
0.6130209 -2.107286 -0.15346424 2.0999999
0.60469747 -2.1242139 -0.15444084 2.0999999
0.59636039 -2.1431417 -0.15555693 2.0999999
0.59224319 -2.1753149 -0.15764964 2.0999999
0.58393836 -2.1961441 -0.15890525 2.0999999
0.57679707 -2.2207127 -0.16043989 2.0999999
0.56939191 -2.2452707 -0.16197453 2.0999999
0.56084776 -2.267978 -0.16336966 3.0999999
0.55713159 -2.3099608 -0.16615993 3.0999999
0.55112374 -2.3442061 -0.16839212 3.0999999
0.54387939 -2.3766081 -0.17048483 3.0999999
0.53972715 -2.4225435 -0.17355411 3.0999999
0.53378808 -2.4647021 -0.17634436 3.0999999
0.5311504 -2.5183108 -0.17997169 2.0999999
1.7753786 -1.709679 -1.0973755 3.0999999
1.7484883 -1.7033019 -1.0868003 3.0999999
1.7373477 -1.7120618 -1.0859869 4.0999999
1.7271576 -1.7223412 -1.0859869 3.0999999
1.6882424 -1.7427397 -1.0802926 30.1
1.6737756 -1.7490598 -1.0778521 9.1000004
1.6511179 -1.745398 -1.0697174 5.0999999
1.6500813 -1.7639323 -1.0754117 5.0999999
1.6485777 -1.782797 -1.0811059 5.0999999
1.630886 -1.7841711 -1.0762252 3.0999999
1.5786302 -1.7477179 -1.0485671 3.0999999
1.5481539 -1.7333416 -1.0347381 3.0999999
1.5193717 -1.7416885 -1.0290437 6.0999999
1.49977 -1.7393407 -1.0225359 3.0999999
1.4655099 -1.7397325 -1.0127742 6.0999999
1.454906 -1.7462325 -1.0119607 7.0999999
1.4473876 -1.7595725 -1.0144012 5.0999999
1.4233986 -1.7508671 -1.0046395 5.0999999
1.4130507 -1.7802716 -1.0119607 13.1
1.4087251 -1.7953229 -1.0160282 5.0999999
1.3946888 -1.7993186 -1.0135877 5.0999999
1.3887464 -1.8131235 -1.0168417 6.0999999
1.3782805 -1.8210919 -1.0168417 8.1000004
1.35245 -1.8085152 -1.005453 3.0999999
1.3452686 -1.8206831 -1.0078934 3.0999999
1.2784352 -1.7518874 -0.9655928 3.0999999
1.2519931 -1.7372091 -0.95339072 3.0999999
1.2321274 -1.7312108 -0.94606942 2.0999999
1.2179326 -1.7322999 -0.94281554 3.0999999
1.2043711 -1.7328629 -0.93956167 3.0999999
1.1919993 -1.7369664 -0.9379347 3.0999999
1.1819754 -1.7438029 -0.9379347 3.0999999
1.1695745 -1.7477492 -0.93630773 3.0999999
1.1638255 -1.7603506 -0.93956167 4.0999999
1.1613476 -1.7794663 -0.94606942 3.0999999
1.1510794 -1.7861257 -0.94606942 3.0999999
1.1005566 -1.7295256 -0.91271704 3.0999999
1.0795851 -1.7190061 -0.90376884 3.0999999
1.0651523 -1.7172455 -0.89970148 3.0999999
1.0568509 -1.7266526 -0.90132838 3.0999999
1.0421644 -1.7248919 -0.89726102 3.0999999
1.0303409 -1.7277272 -0.89563411 3.0999999
1.0126582 -1.7212129 -0.8891263 3.0999999
1.0018107 -1.7254367 -0.88831282 6.0999999
0.99034131 -1.7278346 -0.88668591 7.0999999
0.98096991 -1.7352715 -0.88749933 6.0999999
0.97362912 -1.7456796 -0.88993979 7.0999999
0.95827407 -1.7416537 -0.88505894 6.0999999
0.95027554 -1.7501899 -0.88668591 6.0999999
0.9390108 -1.7541872 -0.88587242 6.0999999
0.925174 -1.7532649 -0.88261849 5.0999999
0.91506058 -1.7585644 -0.88261849 5.0999999
0.90408283 -1.76218 -0.88180506 4.0999999
0.89443439 -1.7691443 -0.88261849 4.0999999
0.88372445 -1.772477 -0.88180506 4.0999999
0.87157983 -1.7744101 -0.88017809 4.0999999
0.86054951 -1.777756 -0.87936461 3.0999999
0.85186929 -1.7859812 -0.88099158 4.0999999
0.83986086 -1.785604 -0.87855113 3.0999999
0.82740253 -1.787385 -0.87692422 3.0999999
0.81709427 -1.7921208 -0.87692422 3.0999999
0.8056972 -1.795271 -0.87611073 3.0999999
0.79682082 -1.8032241 -0.8777377 3.0999999
0.78496414 -1.8044326 -0.87611073 3.0999999
0.77383924 -1.8072442 -0.87529725 3.0999999
0.76097363 -1.8067529 -0.87285686 3.0999999
0.75017124 -1.809287 -0.87204337 3.0999999
0.73942155 -1.8137068 -0.87204337 3.0999999
0.73168319 -1.8247187 -0.87529725 3.0999999
0.72049123 -1.8272029 -0.87448376 3.0999999
0.70961434 -1.829495 -0.87367028 3.0999999
0.70102662 -1.8406253 -0.87692422 3.0999999
0.69169474 -1.8480548 -0.87855113 3.0999999
0.6848228 -1.8622968 -0.88343197 2.0999999
0.67748219 -1.8766391 -0.88831282 2.0999999
0.67060548 -1.8926816 -0.89400715 2.0999999
0.67023402 -1.925732 -0.9078362 2.0999999
0.66090339 -1.9347473 -0.91027659 1.1
0.65381372 -1.9506483 -0.91597092 1.1
0.64690584 -1.9664186 -0.92166525 0.1
0.63802886 -1.9789175 -0.92573261 0.1
0.63012689 -1.9948645 -0.93142694 0.1
0.62348944 -2.014169 -0.93874818 0.1
0.62195265 -2.0509474 -0.95420414 0.1
0.61533123 -2.0720105 -0.96233892 0.1
0.60848767 -2.0930648 -0.97047365 0.1
0.60442144 -2.1246524 -0.98348922 0.1
0.60208237 -2.165168 -1.0005721 1.1
0.59621602 -2.1914158 -1.0111473 2.0999999
0.59258527 -2.2302318 -1.0274167 2.0999999
0.58753347 -2.2636721 -1.0412458 2.0999999
0.58480877 -2.307754 -1.0599557 2.0999999
0.60397649 -2.4442143 -1.1209662 2.0999999
0.61856997 -2.5666602 -1.1754689 2.0999999
0.61672992 -2.625319 -1.2006866 0.1
2.9599955 -1.6856139 -0.15884949 0.1
2.9415863 -1.6976411 -0.15838365 0.1
2.89239 -1.6908535 -0.15624082 0.1
2.8307436 -1.677433 -0.15344581 0.1
2.8056197 -1.6844538 -0.15260731 0.1
2.7716808 -1.6865338 -0.15130298 0.1
2.7299018 -1.682075 -0.14953281 0.1
2.6859796 -1.6770829 -0.14766946 0.1
2.6610794 -1.6829146 -0.14683096 1.1
2.6244252 -1.6809726 -0.14534029 1.1
2.6043484 -1.6899915 -0.14478129 1.1
2.5781713 -1.693542 -0.14384963 1.1
2.5506682 -1.6953018 -0.1428248 1.1
2.5200839 -1.6978989 -0.14170679 0.1
2.4921086 -1.7000011 -0.14068195 0.1
2.4622524 -1.7011324 -0.13956395 0.1
2.4294939 -1.6992549 -0.13825962 0.1
2.40692 -1.7035638 -0.13751428 0.1
2.3854017 -1.7096698 -0.13686211 0.1
2.3447905 -1.7010902 -0.13509195 0.1
2.318851 -1.7027423 -0.13416028 0.1
2.2926731 -1.7045527 -0.1332286 0.1
2.2751346 -1.711326 -0.13276277 0.1
2.2474556 -1.7114825 -0.13173793 0.1
2.2138245 -1.7061057 -0.13034043 0.1
2.1894848 -1.7081528 -0.12950192 0.1
2.1670656 -1.7108313 -0.1287566 0.1
2.1403046 -1.7091943 -0.12773176 0.1
2.11148 -1.7067939 -0.12661377 1.1
2.0923359 -1.7113378 -0.12605476 0.1
2.0652158 -1.7097096 -0.12502992 1.1
2.0449123 -1.7122393 -0.12437776 1.1
2.0270951 -1.7178856 -0.12391192 1.1
2.0035174 -1.7178286 -0.12307342 1.1
1.9754803 -1.7136302 -0.12195542 1.1
1.9577699 -1.7187325 -0.12148958 1.1
1.9317065 -1.7150493 -0.12046475 1.1
1.9140649 -1.7198057 -0.11999891 1.1
1.8937793 -1.7213949 -0.11934675 1.1
1.8735392 -1.7228076 -0.11869457 1.1
1.8515826 -1.7230072 -0.11794924 1.1
1.8329 -1.7254266 -0.11739024 1.1
1.8102118 -1.7232391 -0.11655173 2.0999999
1.79276 -1.7270204 -0.1160859 2.0999999
1.7527366 -1.7080367 -0.1141294 2.0999999
1.7286425 -1.704078 -0.11319773 2.0999999
1.7114278 -1.7072511 -0.1127319 3.0999999
1.6892076 -1.7040133 -0.11189339 3.0999999
1.6692797 -1.7040173 -0.11124123 3.0999999
1.6538783 -1.7078626 -0.11086856 3.0999999
1.6409521 -1.7147599 -0.11068223 3.0999999
1.6241839 -1.716926 -0.11021639 2.0999999
1.6159344 -1.7274293 -0.11030956 2.0999999
1.5988746 -1.7296528 -0.10984372 2.0999999
1.5767571 -1.7255594 -0.10900522 2.0999999
1.5624731 -1.7304372 -0.10872572 3.0999999
1.550123 -1.7361561 -0.10853939 3.0999999
1.5371498 -1.7423278 -0.10835306 3.0999999
1.5231501 -1.7466351 -0.10807355 3.0999999
1.5091519 -1.750839 -0.10779405 3.0999999
1.4948496 -1.7552006 -0.10751455 3.0999999
1.4850235 -1.763522 -0.10751455 3.0999999
1.4665103 -1.7607851 -0.10686239 3.0999999
1.4541491 -1.7684215 -0.10676922 3.0999999
1.4388998 -1.7705657 -0.10639655 3.0999999
1.4283677 -1.7790731 -0.10639655 3.0999999
1.4131303 -1.7810103 -0.10602389 3.0999999
1.4031613 -1.7888749 -0.10602389 3.0999999
1.3888503 -1.7924322 -0.10574438 3.0999999
1.3736455 -1.7940565 -0.10537171 3.0999999
1.3632897 -1.8019384 -0.10537171 4.0999999
1.3496152 -1.8047245 -0.10509221 4.0999999
1.3353212 -1.8078804 -0.10481271 4.0999999
1.3186826 -1.8077024 -0.10434688 4.0999999
1.3082491 -1.8152674 -0.10434688 5.0999999
1.2986126 -1.8246264 -0.10444005 5.0999999
1.2834859 -1.8255383 -0.10406738 2.0999999
1.2732701 -1.8326781 -0.10406738 1.1
1.2883658 -1.8780929 -0.10621022 1.1
1.2685623 -1.8722507 -0.10546488 2.0999999
1.239657 -1.8531766 -0.10397422 2.0999999
1.2403028 -1.8767385 -0.10490588 1.1
1.2346023 -1.8924317 -0.10537171 0.1
1.2355837 -1.9179856 -0.10639655 0.1
1.2298777 -1.9334987 -0.10686239 0.1
1.2056357 -1.9204584 -0.10574438 0.1
1.2012076 -1.9373497 -0.10630339 0.1
1.1792634 -1.927402 -0.10537171 0.1
1.1567817 -1.9153507 -0.10434688 2.0999999
1.1355011 -1.9048208 -0.10341521 2.0999999
1.1282289 -1.9184139 -0.10378788 0.1
1.1342092 -1.9542544 -0.10537171 0.1
1.1232769 -1.9605585 -0.10537171 0.1
1.1057258 -1.9567536 -0.10481271 0.1
1.0895733 -1.9543648 -0.10434688 0.1
1.0773362 -1.9588573 -0.10425371 0.1
1.0797207 -1.9894263 -0.10555805 0.1
1.0678964 -1.9957983 -0.10555805 0.1
1.0821314 -2.1101274 -0.11058906 12.1
1.0704918 -2.1182947 -0.11068223 12.1
1.055971 -2.1188762 -0.11040273 10.1
1.0424984 -2.1233118 -0.11030956 7.0999999
1.0302517 -2.1292808 -0.11030956 7.0999999
1.0171112 -2.1333761 -0.11021639 7.0999999
0.97835356 -2.0809922 -0.10723505 1.1
0.92451513 -1.9980857 -0.10266988 0.1
0.91050625 -1.9979236 -0.10239038 1.1
0.88882214 -1.9814174 -0.10127237 2.0999999
0.85721606 -1.940816 -0.098943204 3.0999999
0.82930058 -1.9377047 -0.098291032 13.1
0.82398874 -1.9573222 -0.099036366 14.1
0.81380904 -1.9637394 -0.099129535 14.1
0.80364949 -1.9722342 -0.099315867 13.1
0.79079056 -1.9731213 -0.099129535 11.1
0.78234321 -1.985078 -0.099502206 9.1000004
0.77124435 -1.9894164 -0.099502206 7.0999999
0.7594254 -1.993958 -0.099502206 7.0999999
0.74757969 -1.9984294 -0.099502206 7.0999999
0.738814 -2.0102026 -0.099874869 4.0999999
0.72790223 -2.0163038 -0.099968038 7.0999999
0.71459007 -2.0168214 -0.099781707 13.1
0.70594168 -2.0283282 -0.10015437 8.1000004
0.69453847 -2.0343723 -0.10024754 6.0999999
0.68471366 -2.0440218 -0.10052704 3.0999999
0.67703098 -2.0592015 -0.10108604 2.0999999
0.66541231 -2.0650842 -0.1011792 2.0999999
0.66036332 -2.0918584 -0.10229721 2.0999999
0.65834165 -2.128073 -0.10388105 2.0999999
0.6489712 -2.1413894 -0.10434688 2.0999999
0.643448 -2.1680746 -0.10546488 2.0999999
0.63763869 -2.1947668 -0.10658289 3.0999999
0.6309967 -2.2195413 -0.10760772 3.0999999
0.62583822 -2.25212 -0.10900522 3.0999999
0.6200642 -2.2806423 -0.11021639 3.0999999
0.61626101 -2.3209691 -0.11198656 3.0999999
0.60840029 -2.3457522 -0.1130114 3.0999999
0.6056689 -2.391825 -0.11506107 3.0999999
0.60152227 -2.4361079 -0.11701757 3.0999999
0.59590071 -2.4744935 -0.11869457 3.0999999
0.59122634 -2.5187287 -0.12065108 3.0999999
0.58784312 -2.5707812 -0.12298025 4.0999999
0.58214319 -2.6150763 -0.12493675 4.0999999
0.57844573 -2.6731586 -0.12754543 5.0999999
0.5746851 -2.7270763 -0.12996776 6.0999999
0.57090324 -2.791115 -0.13285594 7.0999999
0.56821316 -2.8670597 -0.13630311 7.0999999
0.56955385 -2.9604337 -0.14058879 7.0999999
1.8175648 -1.7308435 -1.0483505 2.0999999
1.7846711 -1.7198287 -1.035246 2.0999999
1.7641642 -1.7197733 -1.0290793 3.0999999
1.7502878 -1.7260182 -1.0267668 3.0999999
1.7321767 -1.7285527 -1.0221417 4.0999999
1.6994852 -1.7555711 -1.0206 25.1
1.682659 -1.7589573 -1.0167457 6.0999999
1.6864483 -1.7833692 -1.025225 6.0999999
1.6978904 -1.8156751 -1.0383295 6.0999999
1.7033683 -1.8433387 -1.0483505 6.0999999
1.7163715 -1.8790081 -1.0629965 6.0999999
1.7101374 -1.8946398 -1.0660799 6.0999999
1.5134338 -1.7361047 -0.96201569 13.1
1.5118421 -1.7545792 -0.96741158 5.0999999
1.5061891 -1.7691405 -0.97049499 6.0999999
1.473704 -1.7506998 -0.95584893 2.0999999
1.4535829 -1.7458832 -0.94891131 3.0999999
1.4437565 -1.7564075 -0.94968218 5.0999999
1.4533983 -1.7890443 -0.96278656 5.0999999
1.4288949 -1.7803662 -0.95353639 4.0999999
1.3945339 -1.7582028 -0.9373486 3.0999999
1.3710278 -1.7485366 -0.92809844 3.0999999
1.3594975 -1.7551825 -0.92732763 3.0999999
1.3437576 -1.7556561 -0.92347336 3.0999999
1.3347367 -1.7648383 -0.92424423 2.0999999
1.3160195 -1.7604403 -0.91807747 3.0999999
1.2732869 -1.7461123 -0.90266055 2.0999999
1.2524216 -1.7384433 -0.89495212 3.0999999
1.2378042 -1.7398297 -0.89186871 3.0999999
1.2224572 -1.7393806 -0.8880145 3.0999999
1.2137764 -1.7476966 -0.8887853 3.0999999
1.2054714 -1.7579125 -0.89032704 3.0999999
1.1942917 -1.7632984 -0.88955617 4.0999999
1.189962 -1.779559 -0.89418125 3.0999999
1.1800046 -1.7861772 -0.89418125 3.0999999
1.1341014 -1.7390444 -0.86720163 2.0999999
1.1140747 -1.7300315 -0.8594932 2.0999999
1.1011214 -1.7317474 -0.85718066 2.0999999
1.0869018 -1.7319983 -0.85409725 2.0999999
1.0742949 -1.7333359 -0.85178471 2.0999999
1.0591758 -1.7318084 -0.84793049 2.0999999
1.043461 -1.7284007 -0.84330541 3.0999999
1.020373 -1.7357113 -0.84099287 9.1000004
1.0112852 -1.7431558 -0.84176373 7.0999999
0.99969953 -1.7455738 -0.840222 7.0999999
0.9884159 -1.7498685 -0.83945119 7.0999999
0.97921944 -1.7571443 -0.840222 7.0999999
0.96819371 -1.7611378 -0.83945119 7.0999999
0.95482254 -1.7600292 -0.83636779 7.0999999
0.94262081 -1.7624096 -0.83482611 7.0999999
0.93472809 -1.7728695 -0.83713865 7.0999999
0.92279905 -1.774949 -0.83559698 6.0999999
0.91171896 -1.7785921 -0.83482611 4.0999999
0.90114862 -1.783971 -0.83482611 4.0999999
0.89034814 -1.7873243 -0.83405524 4.0999999
0.87972635 -1.7925762 -0.83405524 4.0999999
0.8653698 -1.7893064 -0.83020103 3.0999999
0.85663766 -1.7975928 -0.8317427 3.0999999
0.84532952 -1.7988608 -0.83020103 3.0999999
0.83432519 -1.8039911 -0.83020103 4.0999999
0.82162613 -1.8037281 -0.82788849 3.0999999
0.81241822 -1.8119398 -0.82943016 3.0999999
0.7967515 -1.8047711 -0.82403427 3.0999999
0.7878148 -1.8127152 -0.82557595 3.0999999
0.77445799 -1.8104355 -0.8224926 3.0999999
0.76441681 -1.8167003 -0.82326341 3.0999999
0.75496483 -1.8226464 -0.82403427 3.0999999
0.7441358 -1.8270943 -0.82403427 3.0999999
0.7336002 -1.8313498 -0.82403427 5.0999999
0.72439301 -1.8389788 -0.82557595 3.0999999
0.71477777 -1.8447167 -0.82634681 3.0999999
0.70710123 -1.8575495 -0.83020103 2.0999999
0.69865108 -1.8686272 -0.83328444 2.0999999
0.68787706 -1.8726201 -0.83328444 2.0999999
0.69023347 -1.9130057 -0.84947217 2.0999999
0.68133348 -1.9240264 -0.85255557 1.1
0.67178977 -1.9312878 -0.85409725 1.1
0.66270131 -1.9422266 -0.85718066 1.1
0.65501928 -1.9565114 -0.86180574 0.1
0.64523411 -1.9636457 -0.86334741 0.1
0.63526738 -1.9727099 -0.86565995 1.1
0.62299466 -1.974685 -0.86488909 2.0999999
0.61215615 -1.9800035 -0.86565995 2.0999999
0.5959276 -1.9676001 -0.85872233 2.0999999
0.58930802 -1.9869235 -0.86565995 1.1
0.5932914 -2.0434535 -0.8887853 0.1
0.59059042 -2.0787907 -0.90266055 0.1
0.58565134 -2.1089315 -0.91422325 0.1
0.587412 -2.1620352 -0.93580693 1.1
0.56634009 -2.2381542 -0.96432823 1.1
0.58708924 -2.3794401 -1.0236833 2.0999999
0.58244193 -2.4204614 -1.0398711 2.0999999
0.57312709 -2.4435399 -1.0483505 1.1
0.61165977 -2.6770873 -1.1470187 1.1
3.0823441 -1.6854371 -0.081562735 0.1
3.0373163 -1.6843051 -0.080634303 0.1
2.9979343 -1.6851155 -0.07984513 0.1
2.9253449 -1.6672342 -0.078173958 0.1
2.8914542 -1.6700548 -0.077524051 0.1
2.8561947 -1.6710323 -0.076827727 0.1
2.818712 -1.6716331 -0.076084986 0.1
2.7833292 -1.672393 -0.075388663 1.1
2.7511556 -1.6753607 -0.07478518 1.1
2.7264388 -1.6812546 -0.074367389 1.1
2.6926751 -1.6825702 -0.073717482 0.1
2.6559074 -1.6809421 -0.072974741 0.1
2.6327155 -1.6875789 -0.072603367 0.1
2.5924709 -1.6835703 -0.071767777 0.1
2.5679905 -1.688138 -0.071349978 0.1
2.535512 -1.6865044 -0.070700079 0.1
2.5116026 -1.6934597 -0.070328705 0.1
2.4687803 -1.6853508 -0.069400273 0.1
2.4357109 -1.6840516 -0.068750374 0.1
2.4014001 -1.680854 -0.06805405 0.1
2.383817 -1.6884612 -0.067821942 0.1
2.3575079 -1.6909237 -0.067357726 0.1
2.3315499 -1.692727 -0.066893511 0.1
2.2992048 -1.6895517 -0.066243604 0.1
2.2763052 -1.6936175 -0.065872237 0.1
2.244446 -1.6894697 -0.06522233 0.1
2.2312005 -1.7003348 -0.065129489 0.1
2.1944542 -1.6923991 -0.064340323 0.1
2.1717646 -1.6955479 -0.063968949 0.1
2.1556873 -1.7030702 -0.063783266 0.1
2.1289604 -1.7013526 -0.063272625 0.1
2.0955088 -1.6950938 -0.062576301 0.1
2.0810695 -1.7033355 -0.062437039 1.1
2.0555277 -1.702899 -0.061972823 1.1
2.0398548 -1.709216 -0.061787136 1.1
2.0190017 -1.712238 -0.061462183 1.1
2.0000017 -1.7160261 -0.061183654 1.1
1.9734758 -1.713099 -0.060673017 1.1
1.9542626 -1.7168617 -0.060394488 1.1
1.9326856 -1.7171254 -0.060023114 1.1
1.9090806 -1.7165321 -0.059605319 1.1
1.8888088 -1.7180812 -0.059280369 1.1
1.8685828 -1.7194542 -0.058955416 2.0999999
1.8437139 -1.7168862 -0.0584912 2.0999999
1.8221517 -1.7165085 -0.05811983 2.0999999
1.8067456 -1.7211421 -0.057934143 2.0999999
1.7878634 -1.7235069 -0.057655614 2.0999999
1.7535719 -1.7100445 -0.056866445 2.0999999
1.7351531 -1.7116908 -0.056587916 2.0999999
1.7249652 -1.7219572 -0.056587916 2.0999999
1.705471 -1.721621 -0.056262966 2.0999999
1.68963 -1.7259959 -0.056077279 2.0999999
1.6754897 -1.7313882 -0.055938013 2.0999999
1.6582764 -1.734075 -0.055705905 2.0999999
1.6441408 -1.7392381 -0.055566642 2.0999999
1.6275744 -1.7410903 -0.055334534 3.0999999
