# .PCD v0.7 - Point Cloud Data file format
VERSION 0.7
FIELDS x y z intensity
SIZE 4 4 4 4
TYPE F F F F
COUNT 1 1 1 1
WIDTH 916
HEIGHT 1
VIEWPOINT 0 0 0 1 0 0 0
POINTS 916
DATA ascii
0.15490524 -2.6463585 -1.5721055 1.1
0.13865682 -2.6369238 -1.5659844 1.1
0.12287783 -2.6153185 -1.552722 0.1
0.0281944 -2.3410754 -1.3884721 22.1
0.014472594 -2.3033545 -1.3660281 21.1
0.0011934473 -2.2793162 -1.3517455 22.1
-0.011826334 -2.2586427 -1.3395033 23.1
-0.024645768 -2.2413359 -1.3293014 27.1
-0.037858244 -2.23599 -1.3262409 30.1
-0.050384678 -2.2202568 -1.3170592 29.1
-0.062735446 -2.2182212 -1.316039 30.1
-0.075426772 -2.204056 -1.3078775 30.1
-0.08770749 -2.1932719 -1.3017564 30.1
-0.099563919 -2.1841557 -1.2966554 30.1
-0.11163782 -2.1663468 -1.2864536 30.1
-0.12370135 -2.151907 -1.2782922 28.1
-0.13478996 -2.1305571 -1.2660499 32.099998
-0.14563677 -2.1091516 -1.2538077 33.099998
-0.15647723 -2.0859497 -1.2405453 28.1
-0.16646574 -2.0644672 -1.2283031 35.099998
-0.17716832 -2.0497634 -1.2201415 35.099998
-0.18774566 -2.0315466 -1.2099397 36.099998
-0.19757818 -2.015058 -1.2007581 37.099998
-0.20794211 -2.0053678 -1.1956571 38.099998
-0.21887313 -1.9920906 -1.1885158 31.1
-0.23882686 -1.9620727 -1.1721928 5.0999999
-0.25012356 -1.9606647 -1.1721928 2.0999999
-0.26118445 -1.9574865 -1.1711727 2.0999999
-0.29402134 -1.9441255 -1.1660718 17.1
-0.30594167 -1.9492508 -1.1701525 5.0999999
-0.3175033 -1.947401 -1.1701525 2.0999999
-0.32957396 -1.9506286 -1.173213 3.0999999
-0.34164736 -1.9555359 -1.1772938 1.1
-0.38392866 -1.9301397 -1.167092 7.0999999
-0.39676559 -1.9363226 -1.1721928 1.1
-0.43704155 -1.9082236 -1.1609708 44.099998
-0.44959959 -1.9123732 -1.1650516 52.099998
-0.4613435 -1.9113437 -1.1660718 53.099998
-0.47358409 -1.9136645 -1.1691324 59.099998
-0.48502094 -1.9125726 -1.1701525 63.099998
-0.49646091 -1.9114124 -1.1711727 66.099998
-0.50790364 -1.9101837 -1.1721928 68.099998
-0.51968175 -1.908796 -1.173213 68.099998
-0.53217894 -1.9124929 -1.1772938 72.099998
-0.54385173 -1.9092063 -1.1772938 72.099998
-0.55450618 -1.9061391 -1.1772938 72.099998
-0.56645554 -1.9062117 -1.1793342 70.099998
-0.57825696 -1.9044628 -1.1803544 70.099998
-0.5899024 -1.90449 -1.1823947 72.099998
-0.60052979 -1.9011656 -1.1823947 70.099998
-0.61371654 -1.9023732 -1.1854553 72.099998
-0.62433177 -1.8989159 -1.1854553 72.099998
-0.63756168 -1.8999593 -1.1885158 72.099998
-0.64927578 -1.8996245 -1.1905562 72.099998
-0.6622349 -1.9006115 -1.1936167 68.099998
-0.67432129 -1.9000081 -1.1956571 70.099998
-0.68700743 -1.9009463 -1.1987177 70.099998
-0.6985386 -1.8985723 -1.1997379 68.099998
-0.71127182 -1.8993505 -1.2027984 66.099998
-0.72375584 -1.8983111 -1.2048388 68.099998
-0.73654354 -1.8989226 -1.2078993 68.099998
-0.74776858 -1.8963796 -1.2089195 66.099998
-0.76093024 -1.8966986 -1.2119801 63.099998
-0.77412194 -1.896928 -1.2150407 68.099998
-0.78833026 -1.9003826 -1.2201415 72.099998
-0.79893166 -1.8959501 -1.2201415 68.099998
-0.81287789 -1.8975008 -1.2242223 68.099998
-0.82585263 -1.8975195 -1.2272829 70.099998
-0.83885455 -1.8974515 -1.2303435 70.099998
-0.85150915 -1.8955786 -1.2323838 72.099998
-0.86565095 -1.8986195 -1.2374847 68.099998
-0.87801713 -1.8967245 -1.2395251 70.099998
-0.89218456 -1.8977079 -1.2436059 68.099998
-0.90499115 -1.8973534 -1.2466664 68.099998
-0.92031473 -1.8995303 -1.2517673 68.099998
-0.93318534 -1.8989924 -1.2548279 68.099998
-0.94794506 -1.9012836 -1.2599288 59.099998
-0.95843405 -1.8940901 -1.2589086 30.1
-1.0327778 -1.9563537 -1.3119582 0.1
-1.0761043 -1.9819375 -1.3374629 0.1
-1.0606204 -1.9276673 -1.304817 0.1
-1.0787462 -1.9333572 -1.3129784 0.1
-1.0949446 -1.9360963 -1.3190995 0.1
-1.1108717 -1.9389064 -1.3252207 0.1
-1.1128535 -1.9159178 -1.3139986 0.1
-1.1352134 -1.9287491 -1.327261 0.1
-1.1633844 -1.9500475 -1.3466445 0.1
-1.1692574 -1.9344814 -1.3405235 0.1
-1.1947527 -1.9511877 -1.3568465 0.1
-1.2059709 -1.9442742 -1.3568465 0.1
-1.2134885 -1.9314696 -1.3527657 0.1
-1.2295475 -1.9314904 -1.3578665 0.1
-1.2403157 -1.9245932 -1.3578665 0.1
-1.2645425 -1.9375858 -1.3721492 0.1
-1.2807616 -1.9372227 -1.3772501 0.1
-1.3052953 -1.9498268 -1.3915327 0.1
-1.327744 -1.9595959 -1.403775 0.1
-1.3305887 -1.938917 -1.3945932 0.1
-1.3489434 -1.9408751 -1.4017346 0.1
-1.3749478 -1.954177 -1.4170374 0.1
-1.3858404 -1.9464674 -1.4170374 0.1
-1.390661 -1.9281989 -1.409896 0.1
-1.4003943 -1.9190124 -1.4088758 0.1
-1.42471 -1.9289033 -1.4221382 0.1
-1.4454033 -1.9328136 -1.43132 0.1
-1.4582514 -1.9274546 -1.4333603 0.1
-1.4790776 -1.9310583 -1.442542 1.1
-1.4880674 -1.9197882 -1.4405016 2.0999999
-1.5669509 -1.9274453 -1.4731475 29.1
-1.5758405 -1.9157313 -1.4711071 31.1
-1.5978526 -1.9198455 -1.4813091 37.099998
-1.61664 -1.9198216 -1.4884503 45.099998
-1.6377109 -1.9222636 -1.4976319 47.099998
-1.6591991 -1.9242367 -1.5068136 45.099998
-1.6781703 -1.9237227 -1.5139549 45.099998
-1.6991308 -1.9259298 -1.5231366 41.099998
-1.7185494 -1.9247955 -1.5302778 48.099998
-1.7411375 -1.9276313 -1.5404798 47.099998
-1.7626545 -1.9290004 -1.5496614 47.099998
-1.7842448 -1.9301852 -1.5588431 47.099998
-1.8070818 -1.9324414 -1.5690449 43.099998
-1.8291588 -1.9329292 -1.5782266 39.099998
-1.8509673 -1.9335457 -1.5874083 39.099998
-1.8767716 -1.9373546 -1.5996505 36.099998
-1.8996005 -1.939131 -1.6098523 35.099998
-1.9228462 -1.940377 -1.6200542 33.099998
-1.9477257 -1.9422941 -1.6312762 32.099998
-1.9744662 -1.9470881 -1.6445386 33.099998
-1.9995376 -1.9485435 -1.6557606 32.099998
-2.0268328 -1.9525099 -1.669023 30.1
-2.0554852 -1.9574121 -1.6833056 20.1
-2.097131 -1.9734738 -1.7077901 16.1
-2.1396034 -1.9910276 -1.7332947 13.1
-2.1855698 -2.0097344 -1.7608397 8.1000004
-2.2111111 -2.009841 -1.7720618 4.0999999
-2.204736 -1.9809765 -1.7577792 3.0999999
-2.2177389 -1.9690006 -1.7587994 3.0999999
-2.2480924 -1.9736074 -1.7741022 3.0999999
-2.2844541 -1.9816494 -1.7934856 2.0999999
-2.3245602 -1.9930929 -1.8159298 1.1
0.1507958 -2.886996 -1.6243061 1.1
0.13353236 -2.863409 -1.6105906 2.0999999
0.11568766 -2.8432448 -1.5988345 1.1
0.046593867 -2.642926 -1.4851918 18.1
0.028830022 -2.4653184 -1.3852646 16.1
0.014464859 -2.437546 -1.3695898 21.1
0.00041813584 -2.3957419 -1.3460776 22.1
-0.013273157 -2.3765249 -1.3353012 28.1
-0.026841979 -2.365948 -1.3294231 28.1
-0.040670361 -2.3535435 -1.3225653 32.099998
-0.053863548 -2.3375816 -1.3137482 32.099998
-0.066668652 -2.3285298 -1.3088498 32.099998
-0.080183953 -2.3193803 -1.3039514 32.099998
-0.092978992 -2.3049424 -1.296114 32.099998
-0.10513063 -2.2887111 -1.2872969 30.1
-0.11744539 -2.263669 -1.2735814 28.1
-0.12916467 -2.23334 -1.2569269 27.1
-0.14080788 -2.2134178 -1.2461504 16.1
-0.16288061 -2.1611977 -1.2177397 32.099998
-0.17297795 -2.1359234 -1.2040243 33.099998
-0.18407102 -2.1209948 -1.1961868 35.099998
-0.19504334 -2.1025035 -1.18639 36.099998
-0.20575832 -2.0909698 -1.180512 26.1
-0.23920426 -2.0610805 -1.1658168 13.1
-0.25269839 -2.0700092 -1.1716949 3.0999999
-0.26174027 -2.0460358 -1.158959 3.0999999
-0.30968252 -2.0428572 -1.1609185 21.1
-0.3178356 -2.0204263 -1.1491623 19.1
-0.33094409 -2.025388 -1.1530811 15.1
-0.34347716 -2.0286057 -1.15602 3.0999999
-0.35209551 -2.0111983 -1.147203 5.0999999
-0.3858375 -1.9961196 -1.1423045 35.099998
-0.3976686 -1.9955744 -1.1432842 39.099998
-0.40915564 -1.9932508 -1.1432842 40.099998
-0.42134994 -1.9942732 -1.1452435 44.099998
-0.43319935 -1.9935172 -1.1462233 46.099998
-0.44502142 -1.9909114 -1.1462233 46.099998
-0.45652363 -1.9900944 -1.147203 52.099998
-0.46837774 -1.9891292 -1.1481826 53.099998
-0.47976348 -1.98462 -1.147203 57.099998
-0.49160549 -1.9835162 -1.1481826 56.099998
-0.50259233 -1.9789619 -1.147203 56.099998
-0.51485974 -1.9794093 -1.1491623 57.099998
-0.52714902 -1.979781 -1.1511216 47.099998
-0.53888792 -1.9766181 -1.1511216 38.099998
-0.54945093 -1.9718978 -1.150142 38.099998
-0.56244278 -1.9718581 -1.1521013 38.099998
-0.57149643 -1.96199 -1.1481826 46.099998
-0.58228987 -1.9569947 -1.147203 42.099998
-0.59693557 -1.9635142 -1.1530811 34.099998
-0.60582662 -1.9534882 -1.1491623 33.099998
-0.61725324 -1.9517367 -1.150142 36.099998
-0.62970006 -1.9495889 -1.1511216 46.099998
-0.64112389 -1.9476978 -1.1521013 60.099998
-0.65300965 -1.943745 -1.1521013 66.099998
-0.66554886 -1.9450169 -1.1550404 73.099998
-0.67765331 -1.9426795 -1.15602 78.099998
-0.68999857 -1.9420303 -1.1579794 70.099998
-0.70235878 -1.9413033 -1.1599387 76.099998
-0.71714401 -1.9470428 -1.1658168 70.099998
-0.72773415 -1.9412473 -1.1648371 73.099998
-0.73924088 -1.9368948 -1.1648371 73.099998
-0.75227755 -1.9374812 -1.1677762 76.099998
-0.76564741 -1.9397368 -1.1716949 76.099998
-0.77909386 -1.9400134 -1.1746339 76.099998
-0.79388922 -1.9434267 -1.1795323 68.099998
-0.80373204 -1.9356014 -1.177573 70.099998
-0.81656277 -1.935902 -1.180512 68.099998
-0.82941055 -1.9342273 -1.1824714 73.099998
-0.84541178 -1.9406079 -1.1893291 70.099998
-0.85657477 -1.9357066 -1.1893291 70.099998
-0.87162149 -1.9385408 -1.1942275 76.099998
-0.88315862 -1.9352288 -1.1952071 73.099998
-0.89429003 -1.9301101 -1.1952071 68.099998
-0.91092449 -1.9358132 -1.2020649 73.099998
-0.92472667 -1.9369894 -1.2059836 73.099998
-0.9403457 -1.9391489 -1.2108819 81.099998
-0.95346987 -1.9385607 -1.2138211 70.099998
-0.96539789 -1.9345971 -1.2148007 76.099998
-0.9823755 -1.9397229 -1.2216585 70.099998
-0.99558294 -1.9388593 -1.2245975 68.099998
-1.0094877 -1.9375564 -1.2275366 68.099998
-1.0247033 -1.9394183 -1.2324349 68.099998
-1.0383266 -1.9380952 -1.235374 68.099998
-1.0531393 -1.9380277 -1.2392926 66.099998
-1.0681521 -1.9397525 -1.2441911 68.099998
-1.0847447 -1.9425139 -1.2500691 68.099998
-1.100209 -1.9438212 -1.2549676 68.099998
-1.1119155 -1.9391588 -1.2559472 70.099998
-1.1312896 -1.9460933 -1.2647643 70.099998
-1.1469042 -1.9470571 -1.2696627 66.099998
-1.1629074 -1.9477024 -1.274561 64.099998
-1.1777158 -1.9469398 -1.2784798 64.099998
-1.194376 -1.9490446 -1.2843579 63.099998
-1.2101798 -1.9495403 -1.2892562 60.099998
-1.2260288 -1.9499183 -1.2941546 63.099998
-1.2431992 -1.951432 -1.3000327 62.099998
-1.2578589 -1.9503194 -1.3039514 64.099998
-1.2738383 -1.9503416 -1.3088498 62.099998
-1.2940484 -1.9558355 -1.3176669 62.099998
-1.3082031 -1.9526957 -1.320606 62.099998
-1.3259385 -1.9554609 -1.3274637 58.099998
-1.3454158 -1.9590567 -1.3353012 56.099998
-1.3649821 -1.9624898 -1.3431386 57.099998
-1.3812819 -1.961724 -1.3480369 55.099998
-1.4003109 -1.9653393 -1.3558743 56.099998
-1.4153515 -1.9609901 -1.3588134 55.099998
-1.4365648 -1.9671359 -1.3686101 52.099998
-1.4530529 -1.9658401 -1.3735086 44.099998
-1.4720058 -1.9669549 -1.3803663 43.099998
-1.4892833 -1.9670439 -1.3862444 41.099998
-1.5104762 -1.9706266 -1.3950615 41.099998
-1.5292819 -1.9715383 -1.4019192 41.099998
-1.5499563 -1.9753122 -1.4107363 38.099998
-1.5739257 -1.9808239 -1.4215127 35.099998
-1.5904257 -1.9787979 -1.4264112 32.099998
-1.6120435 -1.9814984 -1.4352282 30.1
-1.6311862 -1.9816042 -1.442086 26.1
-1.6570789 -1.9895937 -1.4548218 22.1
-1.675252 -1.9880167 -1.4606999 14.1
-1.7025115 -1.996911 -1.4744154 8.1000004
-1.746226 -2.0237362 -1.5018463 10.1
-1.7750529 -2.0333481 -1.5165416 19.1
-1.7979215 -2.0364738 -1.5263383 21.1
-1.8274004 -2.0452726 -1.5410335 18.1
-1.8520111 -2.0489423 -1.5518099 7.0999999
-1.8743711 -2.0498226 -1.5606271 5.0999999
-1.8778579 -2.0300331 -1.5537694 4.0999999
-1.8776051 -2.0064526 -1.5439725 4.0999999
-1.8990698 -2.0054038 -1.5518099 4.0999999
-1.9214441 -2.0057647 -1.5606271 4.0999999
-1.9490899 -2.0106025 -1.5733628 3.0999999
-1.9785978 -2.0183623 -1.588058 3.0999999
-2.034389 -2.0515041 -1.6233264 2.0999999
-2.1576841 -2.1501656 -1.7114974 2.0999999
-2.2950945 -2.2616911 -1.810445 3.0999999
0.10455202 -3.0090353 -1.600898 2.0999999
0.086355343 -2.9619136 -1.5755466 1.1
0.067162193 -2.9147193 -1.5501951 1.1
0.014706933 -2.553442 -1.3577118 8.1000004
-1.9281947e-15 -2.5181665 -1.3389329 14.1
-0.014330614 -2.4881051 -1.3229709 21.1
-0.028518366 -2.4756207 -1.3163983 24.1
-0.042961854 -2.461283 -1.3088868 28.1
-0.056809131 -2.4468713 -1.3013752 29.1
-0.070016459 -2.4306295 -1.2929246 28.1
-0.084070861 -2.4195821 -1.287291 28.1
-0.097075887 -2.3961201 -1.2750847 28.1
-0.10948071 -2.3743722 -1.2638174 27.1
-0.12173242 -2.3384106 -1.2450386 21.1
-0.13345899 -2.3006256 -1.2253208 20.1
-0.14513348 -2.2751462 -1.2121756 23.1
-0.15590611 -2.2408016 -1.1943357 29.1
-0.16747123 -2.2169456 -1.1821294 29.1
-0.1784218 -2.1983745 -1.17274 30.1
-0.18939763 -2.1779587 -1.1624116 32.099998
-0.20117453 -2.1644881 -1.155839 35.099998
-0.21187417 -2.1492717 -1.1483275 36.099998
-0.22259323 -2.1357603 -1.1417549 37.099998
-0.24812856 -2.1347222 -1.1426938 5.0999999
-0.26014894 -2.1279538 -1.139877 4.0999999
-0.27195194 -2.1229169 -1.1379991 3.0999999
-0.28300214 -2.1125641 -1.1333044 2.0999999
-0.32637295 -2.0723407 -1.1154644 39.099998
-0.33894971 -2.0721102 -1.1164033 39.099998
-0.35028833 -2.0666416 -1.1145254 33.099998
-0.36304438 -2.0716105 -1.1182812 34.099998
-0.37438568 -2.0642071 -1.1154644 33.099998
-0.38724381 -2.0672235 -1.1182812 32.099998
-0.39983952 -2.066623 -1.1192203 31.1
-0.41173571 -2.0642858 -1.1192203 31.1
-0.42397365 -2.0636098 -1.1201591 31.1
-0.43621743 -2.0628614 -1.121098 31.1
-0.44771606 -2.0585892 -1.1201591 29.1
-0.45953849 -2.054173 -1.1192203 17.1
-0.47297964 -2.0601799 -1.123915 3.0999999
-0.4848375 -2.0574217 -1.123915 1.1
-0.5053426 -2.088836 -1.1426938 0.1
-0.51608962 -2.0807488 -1.139877 0.1
-0.52676034 -2.0726075 -1.1370602 0.1
-0.5418027 -2.081502 -1.1436328 0.1
-0.55332756 -2.0766404 -1.1426938 0.1
-0.56285208 -2.0630987 -1.1370602 0.1
-0.5772115 -2.0701289 -1.1426938 0.1
-0.58742303 -2.058074 -1.1379991 0.1
-0.59791994 -2.0513704 -1.1361212 0.1
-0.61123669 -2.0529699 -1.1389381 0.1
-0.62443632 -2.0526857 -1.1408159 0.1
-0.63484418 -2.0457931 -1.1389381 0.1
-0.64732563 -2.0455828 -1.1408159 0.1
-0.66252446 -2.0499918 -1.1455106 0.1
-0.67285854 -2.0429051 -1.1436328 0.1
-0.68701333 -2.0437784 -1.1464496 0.1
-0.69555712 -2.0315561 -1.1417549 0.1
-0.70701838 -2.0257256 -1.1408159 0.1
-0.72163147 -2.0299392 -1.1455106 0.1
-0.73451316 -2.0290701 -1.1473885 0.1
-0.74618751 -2.024806 -1.1473885 0.1
-0.75783712 -2.0204749 -1.1473885 0.1
-0.7710734 -2.0192416 -1.1492664 0.1
-0.78141165 -2.0114748 -1.1473885 0.1
-0.79652542 -2.0169342 -1.1530222 0.1
-0.81177187 -2.0203648 -1.1577169 0.1
-0.85161334 -1.9539119 -1.1333044 67.099998
-0.86642724 -1.9570483 -1.1379991 69.099998
-0.88092309 -1.9583142 -1.1417549 65.099998
-0.89478028 -1.9597892 -1.1455106 73.099998
-0.90753829 -1.9578074 -1.1473885 73.099998
-0.9206444 -1.955583 -1.1492664 70.099998
-0.93535739 -1.958378 -1.1539611 70.099998
-0.95038611 -1.9589828 -1.1577169 70.099998
-0.9652105 -1.9615667 -1.1624116 70.099998
-0.97885853 -1.9607148 -1.1652284 69.099998
-0.99446696 -1.9627479 -1.1699232 70.099998
-1.0086411 -1.9634461 -1.1736789 69.099998
-1.0235395 -1.96369 -1.1774347 67.099998
-1.0373082 -1.962446 -1.1802515 64.099998
-1.0527648 -1.9642211 -1.1849462 59.099998
-1.0677758 -1.9641452 -1.188702 56.099998
-1.0846936 -1.968978 -1.1952746 56.099998
-1.0989422 -1.9671316 -1.1980914 56.099998
-1.1154745 -1.9699895 -1.2037251 56.099998
-1.1334889 -1.975983 -1.2112366 56.099998
-1.1487455 -1.9753281 -1.2149924 54.099998
-1.1645861 -1.9762861 -1.2196871 51.099998
-1.1817262 -1.9784367 -1.2253208 49.099998
-1.1967586 -1.977641 -1.2290765 48.099998
-1.2145897 -1.981254 -1.2356491 47.099998
-1.2325019 -1.9847268 -1.2422217 42.099998
-1.2504941 -1.9880587 -1.2487943 36.099998
-1.2679638 -1.9895382 -1.254428 31.1
-1.2895868 -1.9987479 -1.2647564 28.1
-1.3049409 -1.9972005 -1.2685121 26.1
-1.3265162 -2.0041473 -1.2779016 21.1
-1.3449191 -2.0067422 -1.2844743 11.1
-1.3709754 -2.0211208 -1.2985584 6.0999999
-1.4271399 -2.0510929 -1.3286046 27.1
-1.4419804 -2.0471702 -1.3314214 29.1
-1.4646659 -2.0549028 -1.3417497 25.1
-1.4885621 -2.0616663 -1.3520781 10.1
-1.5115122 -2.0690055 -1.3624065 7.0999999
-1.5286531 -2.0673649 -1.3671012 6.0999999
-1.5303111 -2.044121 -1.3577118 4.0999999
-1.5289094 -2.0186498 -1.3464445 3.0999999
-1.5440849 -2.0137458 -1.3492613 4.0999999
-1.5654007 -2.0173752 -1.3577118 4.0999999
-1.5831856 -2.0169356 -1.3633454 3.0999999
-1.6042671 -2.018286 -1.370857 3.0999999
-1.6221534 -2.0175519 -1.3764906 2.0999999
-1.6552758 -2.0339136 -1.3943305 1.1
-1.7152318 -2.0829637 -1.4347051 2.0999999
-1.8006741 -2.161236 -1.4957364 3.0999999
-1.8506513 -2.195385 -1.5267215 4.0999999
-1.8942049 -2.2209668 -1.552073 4.0999999
-1.9304284 -2.2364228 -1.5708518 3.0999999
-1.9734775 -2.25985 -1.5952643 3.0999999
-2.0164611 -2.2832065 -1.6196769 3.0999999
-2.0641015 -2.3093829 -1.6469063 3.0999999
-2.116452 -2.3406808 -1.6778914 3.0999999
-2.1859169 -2.389693 -1.7220217 3.0999999
-2.2560146 -2.4379807 -1.766152 3.0999999
0.032499678 -2.9094014 -1.4614594 0.1
-0.030967437 -2.6091473 -1.3106455 18.1
-0.046068013 -2.5874743 -1.299873 18.1
-0.060675208 -2.5746591 -1.2935891 20.1
-0.074480861 -2.5546291 -1.2837143 24.1
-0.088886723 -2.5327089 -1.2729419 22.1
-0.10245094 -2.5071547 -1.2603741 21.1
-0.11495888 -2.4744084 -1.2442155 18.1
-0.12730183 -2.4290636 -1.2217729 16.1
-0.13963135 -2.3925817 -1.2038188 17.1
-0.15112126 -2.3560669 -1.1858648 21.1
-0.16231993 -2.3212831 -1.1688085 24.1
-0.17365731 -2.2882013 -1.1526498 26.1
-0.18512748 -2.2711642 -1.1445705 27.1
-0.19649529 -2.2504754 -1.1346958 28.1
-0.20818616 -2.2314749 -1.1257187 32.099998
-0.21923813 -2.216049 -1.1185371 39.099998
-0.23049611 -2.2041249 -1.113151 42.099998
-0.24336573 -2.1973467 -1.1104578 39.099998
-0.25477564 -2.1852574 -1.1050715 40.099998
-0.26708618 -2.1783853 -1.1023785 42.099998
-0.27962828 -2.176811 -1.1023785 40.099998
-0.29168525 -2.1716216 -1.1005831 37.099998
-0.30344364 -2.1645958 -1.0978899 36.099998
-0.31590572 -2.1628122 -1.0978899 34.099998
-0.32954085 -2.1662004 -1.1005831 33.099998
-0.34079802 -2.15903 -1.0978899 32.099998
-0.35389301 -2.1587334 -1.0987877 30.1
-0.36721835 -2.1619451 -1.1014807 30.1
-0.37928712 -2.1598606 -1.1014807 29.1
-0.39273635 -2.1610885 -1.1032761 28.1
-0.40715483 -2.1693301 -1.1086624 7.0999999
-0.44159907 -2.2099874 -1.1320026 0.1
-0.45432028 -2.2074072 -1.1320026 0.1
-0.46665606 -2.2030056 -1.1311049 0.1
-0.4800975 -2.2037737 -1.1329004 0.1
-0.49863738 -2.2253017 -1.1454682 0.1
-0.51986933 -2.2608006 -1.1652176 0.1
-0.53041863 -2.2473323 -1.1598314 0.1
-0.55132055 -2.2754104 -1.1759901 0.1
-0.55838484 -2.2479143 -1.1634222 0.1
-0.56911838 -2.236001 -1.1589338 0.1
-0.58198732 -2.232686 -1.1589338 0.1
-0.5888471 -2.2068486 -1.1472636 0.1
-0.59298342 -2.1705589 -1.1302073 0.1
-0.60173249 -2.1551638 -1.1239233 0.1
-0.61144847 -2.1394188 -1.1176394 0.1
-0.62288696 -2.1342549 -1.1167417 0.1
-0.63721132 -2.1374829 -1.1203325 0.1
-0.64675963 -2.1234059 -1.1149462 0.1
-0.6591391 -2.1214674 -1.115844 0.1
-0.67043746 -2.1160493 -1.1149462 0.1
-0.68390131 -2.1136148 -1.115844 0.1
-0.69625491 -2.1114595 -1.1167417 0.1
-0.70971006 -2.1088607 -1.1176394 0.1
-0.72263604 -2.1082454 -1.1194348 0.1
-0.73454428 -2.1022329 -1.1185371 0.1
-0.74544156 -2.0946 -1.1167417 0.1
-0.7574932 -2.0902717 -1.1167417 0.1
-0.77199399 -2.0925813 -1.1203325 0.1
-0.78089237 -2.0797343 -1.115844 0.1
-0.80023956 -2.0934274 -1.1257187 0.1
-0.80904472 -2.0804551 -1.1212302 0.1
-0.81933743 -2.0725801 -1.1194348 0.1
-0.85329777 -1.9870605 -1.0862198 76.099998
-0.86758679 -1.9886653 -1.0898106 77.099998
-0.88119847 -1.9885373 -1.0925038 79.099998
-0.89738566 -1.9930511 -1.0978899 73.099998
-0.91073143 -1.9928846 -1.1005831 77.099998
-0.92294663 -1.9892274 -1.1014807 76.099998
-0.9408291 -1.9966493 -1.1086624 70.099998
-0.95659065 -2.0010383 -1.1140486 35.099998
-0.96567374 -1.9887266 -1.1104578 53.099998
-0.98308277 -1.9961288 -1.1176394 51.099998
-0.99935639 -2.000026 -1.1230257 39.099998
-1.0152487 -2.0020304 -1.1275141 34.099998
-1.0313175 -2.0058656 -1.1329004 27.1
-1.0481621 -2.0092177 -1.1382866 26.1
-1.0647314 -2.0126262 -1.1436728 24.1
-1.0839089 -2.0206347 -1.1517521 17.1
-1.1027137 -2.0267262 -1.1589338 9.1000004
-1.1200562 -2.0314915 -1.1652176 3.0999999
-1.1355802 -2.031049 -1.1688085 3.0999999
-1.1525463 -2.0338044 -1.1741947 3.0999999
-1.1665566 -2.0319855 -1.1768878 3.0999999
-1.183988 -2.0342951 -1.182274 3.0999999
-1.1975008 -2.0305209 -1.1840694 3.0999999
-1.21228 -2.0279813 -1.1867625 3.0999999
-1.2294952 -2.0301378 -1.1921487 3.0999999
-1.242102 -2.0245461 -1.1930465 3.0999999
-1.2631756 -2.0325382 -1.2020234 4.0999999
-1.2777175 -2.0297666 -1.2047166 4.0999999
-1.2945451 -2.0296829 -1.209205 4.0999999
-1.3097385 -2.0284266 -1.2127959 3.0999999
-1.3292243 -2.0328162 -1.2199775 3.0999999
-1.3491595 -2.0368125 -1.2271591 2.0999999
-1.377792 -2.0542409 -1.2424201 2.0999999
-1.5036303 -2.1869779 -1.3330879 3.0999999
-1.5400707 -2.2117503 -1.3537351 6.0999999
-1.5682293 -2.224755 -1.3672006 6.0999999
-1.5961977 -2.2377868 -1.3806661 6.0999999
-1.6265851 -2.2511725 -1.3950294 5.0999999
-1.6538996 -2.2622516 -1.4075973 5.0999999
-1.6902894 -2.2842948 -1.4273467 5.0999999
-1.7231033 -2.2999704 -1.4435054 4.0999999
-1.7564332 -2.317373 -1.4605618 3.0999999
-1.7940896 -2.3381031 -1.4803112 3.0999999
-1.8349296 -2.3630211 -1.5027537 5.0999999
-1.8635545 -2.3724124 -1.5153215 7.0999999
-1.898038 -2.3861609 -1.5314802 5.0999999
-1.9550294 -2.4298286 -1.5664905 2.0999999
-2.0179436 -2.4777732 -1.6050918 4.0999999
-2.0776436 -2.5212798 -1.6409999 4.0999999
-2.1630893 -2.5943782 -1.6966574 4.0999999
-0.018374322 -2.8452878 -1.3468126 3.0999999
-0.065435424 -2.7361016 -1.2954729 16.1
-0.07996922 -2.7103965 -1.2834935 16.1
-0.095219091 -2.6863887 -1.27237 15.1
-0.10905227 -2.6460598 -1.2535454 14.1
-0.12188481 -2.6038773 -1.2338651 12.1
-0.13428664 -2.5453415 -1.206484 11.1
-0.14673983 -2.4993846 -1.1850923 14.1
-0.15834054 -2.4552028 -1.1645565 18.1
-0.16969074 -2.4145782 -1.1457319 20.1
-0.18236692 -2.3918989 -1.135464 27.1
-0.19306803 -2.3584125 -1.120062 28.1
-0.20522742 -2.3410542 -1.1123611 29.1
-0.21776742 -2.3253963 -1.1055157 29.1
-0.22914402 -2.3079541 -1.0978148 29.1
-0.24165313 -2.3030427 -1.0961034 17.1
-0.25491855 -2.2943368 -1.0926808 26.1
-0.26686886 -2.2820575 -1.0875468 28.1
-0.27996483 -2.2768455 -1.0858356 28.1
-0.29238096 -2.2698164 -1.0832685 27.1
-0.30569053 -2.2698863 -1.0841242 27.1
-0.31926215 -2.2716682 -1.0858356 26.1
-0.33155498 -2.2644258 -1.0832685 26.1
-0.34525895 -2.2642057 -1.0841242 26.1
-0.35874665 -2.2675986 -1.0866911 25.1
-0.37307563 -2.2707813 -1.0892582 24.1
-0.38827151 -2.2810693 -1.0952479 17.1
-0.41419736 -2.274667 -1.0943922 0.1
-0.43430728 -2.309552 -1.1123611 1.1
-0.44731548 -2.303385 -1.1106497 0.1
-0.45880035 -2.2919075 -1.1063714 0.1
-0.47272319 -2.292768 -1.1080828 0.1
-0.48329407 -2.2776289 -1.1020931 0.1
-0.49871662 -2.2854044 -1.1072271 0.1
-0.50870669 -2.2665303 -1.0995262 0.1
-0.51932877 -2.2548459 -1.0952479 0.1
-0.53272295 -2.2535765 -1.0961034 0.1
-0.54608649 -2.2503757 -1.0961034 0.1
-0.55860215 -2.2454388 -1.0952479 0.1
-0.57152563 -2.2421844 -1.0952479 0.1
-0.58443016 -2.2388554 -1.0952479 0.1
-0.59544861 -2.2284665 -1.0918251 0.1
-0.60866207 -2.2248938 -1.0918251 0.1
-0.61961842 -2.2162368 -1.0892582 0.1
-0.63016081 -2.2019827 -1.0841242 1.1
-0.64549148 -2.2088399 -1.0892582 1.1
-0.6576857 -2.2033532 -1.0884025 0.1
-0.66916704 -2.1942244 -1.0858356 1.1
-0.68141139 -2.1904528 -1.0858356 1.1
-0.69472772 -2.1900592 -1.0875468 0.1
-0.70642161 -2.1806154 -1.0849799 1.1
-0.71745598 -2.1732028 -1.0832685 0.1
-0.73360378 -2.177345 -1.0875468 0.1
-0.74516612 -2.171504 -1.0866911 0.1
-0.76162016 -2.1772819 -1.0918251 0.1
-0.77536112 -2.176265 -1.0935365 1.1
-0.78973204 -2.176861 -1.0961034 1.1
-0.80100417 -2.168885 -1.0943922 1.1
-0.81093854 -2.1574671 -1.0909696 1.1
-0.81556261 -2.0257101 -1.0336401 35.099998
-0.82893914 -2.0241807 -1.0353515 31.1
-0.84614134 -2.0327239 -1.0421968 28.1
-0.86170501 -2.0379565 -1.0473307 24.1
-0.88092196 -2.0494151 -1.0558873 21.1
-0.89777505 -2.0559039 -1.061877 19.1
-0.91839677 -2.0705285 -1.072145 26.1
-0.93363833 -2.0716345 -1.0755676 26.1
-0.94744968 -2.0713196 -1.0781345 24.1
-0.97002345 -2.0887821 -1.0901139 19.1
-1.0033824 -2.0970378 -1.1003819 19.1
-1.0232854 -2.1055021 -1.1080828 16.1
-1.0430212 -2.1159687 -1.1166394 15.1
-1.060851 -2.1212437 -1.122629 15.1
-1.0816015 -2.131031 -1.1311857 15.1
-1.1009308 -2.1394234 -1.1388866 15.1
-1.1228102 -2.1504796 -1.1482989 17.1
-1.1394069 -2.1519651 -1.1525772 20.1
-1.1594779 -2.1597013 -1.1602782 18.1
-1.1809185 -2.1686587 -1.1688348 14.1
-1.2017457 -2.1778569 -1.1773914 13.1
-1.2270064 -2.1927729 -1.1893706 9.1000004
-1.255668 -2.213973 -1.2047726 9.1000004
-1.2788205 -2.2257347 -1.2150406 9.1000004
-1.303834 -2.2384133 -1.2261642 9.1000004
-1.3314061 -2.2557752 -1.2398548 8.1000004
-1.3521931 -2.2602453 -1.2467 7.0999999
-1.3773695 -2.2725167 -1.2578237 7.0999999
-1.4036776 -2.2861133 -1.2698029 7.0999999
-1.4349612 -2.3071563 -1.2860606 7.0999999
-1.4636425 -2.3233256 -1.2997512 7.0999999
-1.4910202 -2.335932 -1.3117304 6.0999999
-1.5256276 -2.360971 -1.330555 7.0999999
-1.5800987 -2.3836515 -1.3536578 17.1
-1.6038759 -2.3895209 -1.3622144 15.1
-1.6395446 -2.4134226 -1.381039 5.0999999
-1.683553 -2.4468391 -1.4058533 4.0999999
-1.7311151 -2.4842663 -1.4332345 4.0999999
-1.7724874 -2.512661 -1.4554816 4.0999999
-1.8190511 -2.5483334 -1.4820073 4.0999999
-1.8674201 -2.5825853 -1.5085328 4.0999999
-1.9159713 -2.6188016 -1.5359139 5.0999999
-1.9837358 -2.6789088 -1.5778414 5.0999999
-2.0820107 -2.7770135 -1.6428717 5.0999999
-2.2624466 -2.9828248 -1.7720767 2.0999999
-2.3241458 -3.0266976 -1.8063033 3.0999999
-2.3515227 -3.026108 -1.8140042 3.0999999
-0.087808736 -2.9585845 -1.3178267 7.0999999
-0.10380274 -2.9141889 -1.2983034 7.0999999
-0.11862102 -2.8660791 -1.277153 5.0999999
-0.13119632 -2.7923687 -1.2446141 3.0999999
-0.14341816 -2.7094369 -1.2080078 5.0999999
-0.15509014 -2.6337569 -1.1746554 6.0999999
-0.16754499 -2.5908844 -1.1559455 12.1
-0.17899759 -2.5406671 -1.1339817 14.1
-0.19170426 -2.50859 -1.1201527 21.1
-0.20332155 -2.4783444 -1.1071371 21.1
-0.21631332 -2.4625716 -1.1006293 22.1
-0.22972789 -2.4485111 -1.0949351 21.1
-0.24213348 -2.434463 -1.0892408 21.1
-0.2551533 -2.4276214 -1.0868003 21.1
-0.26937169 -2.4205699 -1.0843599 21.1
-0.2837337 -2.4226077 -1.0859869 21.1
-0.29698816 -2.4118142 -1.0819194 21.1
-0.31087422 -2.4100637 -1.0819194 21.1
-0.32474995 -2.4082334 -1.0819194 21.1
-0.33861494 -2.406323 -1.0819194 21.1
-0.35326371 -2.4097562 -1.0843599 20.1
-0.36838439 -2.4130359 -1.0868003 19.1
-0.3832846 -2.4199638 -1.0908676 14.1
-0.41401133 -2.4297254 -1.0973755 1.1
-0.42947668 -2.4381716 -1.1022563 1.1
-0.44229928 -2.4265928 -1.0981889 1.1
-0.45525411 -2.4186184 -1.0957485 1.1
-0.46890113 -2.4122872 -1.0941216 1.1
-0.48099232 -2.4005892 -1.0900542 0.1
-0.49444139 -2.3959897 -1.0892408 1.1
-0.50861257 -2.3948894 -1.0900542 1.1
-0.52044839 -2.3829951 -1.0859869 1.1
-0.53217751 -2.3691688 -1.0811059 1.1
-0.54745305 -2.3750618 -1.0851734 1.1
-0.55775815 -2.357645 -1.0786656 1.1
-0.57303238 -2.3596203 -1.0811059 1.1
-0.585289 -2.3509617 -1.0786656 1.1
-0.59746504 -2.3422406 -1.0762252 1.1
-0.60956001 -2.3334572 -1.0737847 1.1
-0.62528527 -2.336859 -1.0770386 1.1
-0.63487476 -2.3191209 -1.0705309 1.1
-0.64732492 -2.3137794 -1.0697174 1.1
-0.66335988 -2.3149357 -1.0721577 1.1
-0.67422611 -2.3041804 -1.0689039 1.1
-0.68905556 -2.3055108 -1.0713444 1.1
-0.70018977 -2.2945137 -1.0680904 1.1
-0.7135368 -2.2923119 -1.0689039 1.1
-0.72411722 -2.2813251 -1.06565 1.1
-0.73972958 -2.2820735 -1.0680904 1.1
-0.75704819 -2.2917855 -1.0745982 1.1
-0.77220106 -2.290581 -1.0762252 1.1
-0.78438866 -2.2845044 -1.0754117 1.1
-0.79551697 -2.2729115 -1.0721577 1.1
-0.79693818 -2.2355928 -1.0567018 2.0999999
-0.8120296 -2.1209397 -1.0111473 21.1
-0.83019966 -2.1315503 -1.0184685 18.1
-0.84814483 -2.1421695 -1.0257899 17.1
-0.86698574 -2.1523516 -1.0331111 17.1
-0.88666981 -2.1640759 -1.0412458 16.1
-0.90473872 -2.1724265 -1.0477536 19.1
-0.92468798 -2.1858494 -1.0567018 15.1
-0.94413906 -2.1954298 -1.064023 15.1
-0.96408284 -2.2066984 -1.0721577 14.1
-0.98344642 -2.2161396 -1.0794791 14.1
-1.0063429 -2.2319176 -1.0900542 24.1
-1.020313 -2.2295852 -1.0916811 14.1
-1.0423758 -2.2435553 -1.1014428 11.1
-1.0626879 -2.2522018 -1.1087641 10.1
-1.0839276 -2.2643595 -1.1177123 9.1000004
-1.1073267 -2.2774138 -1.127474 9.1000004
-1.1305342 -2.2924967 -1.1380491 8.1000004
-1.1543471 -2.307189 -1.1486243 7.0999999
-1.1771171 -2.3182185 -1.1575725 7.0999999
-1.2025905 -2.3359752 -1.1697745 7.0999999
-1.2265822 -2.3482313 -1.1795362 7.0999999
-1.2512046 -2.3621173 -1.1901114 7.0999999
-1.2786208 -2.3806255 -1.203127 9.1000004
-1.3032138 -2.3922498 -1.2128887 21.1
-1.3262672 -2.402529 -1.2218369 20.1
-1.3467481 -2.4057765 -1.2275312 11.1
-1.3849263 -2.4408863 -1.2494949 4.0999999
-1.4212998 -2.4727147 -1.2698318 4.0999999
-1.453426 -2.494231 -1.2852877 3.0999999
-1.4891338 -2.5220046 -1.3039976 4.0999999
-1.525654 -2.5491819 -1.3227075 4.0999999
-1.5620987 -2.5762863 -1.3414174 4.0999999
-1.6055995 -2.6139522 -1.3658216 5.0999999
-1.6351067 -2.6279309 -1.3780237 7.0999999
-1.6667758 -2.6447473 -1.3918527 10.1
-1.7188231 -2.691787 -1.4219513 4.0999999
-1.7943355 -2.7757444 -1.4715732 5.0999999
-1.9751067 -2.9784102 -1.5911537 10.1
-2.077033 -3.0175865 -1.631014 4.0999999
-2.1105757 -3.0276909 -1.643216 3.0999999
-0.18008284 -2.7697539 -1.1593522 4.0999999
-0.19212218 -2.7134447 -1.1362269 6.0999999
-0.20497158 -2.6699352 -1.1184974 12.1
-0.21745545 -2.6393209 -1.1061639 15.1
-0.231194 -2.6214795 -1.0992262 15.1
-0.24588084 -2.6108747 -1.0953721 16.1
-0.25935906 -2.5984426 -1.090747 17.1
-0.27328673 -2.5914476 -1.0884345 17.1
-0.28911179 -2.5897298 -1.0884345 17.1
-0.30423799 -2.5898547 -1.0892053 17.1
-0.31982726 -2.5898352 -1.0899761 16.1
-0.33402804 -2.5824594 -1.0876635 16.1
-0.34889632 -2.5804927 -1.0876635 16.1
-0.365042 -2.5875776 -1.0915178 15.1
-0.38128084 -2.5945613 -1.0953721 15.1
-0.41172075 -2.5936427 -1.0969137 1.1
-0.43280715 -2.625751 -1.1115597 1.1
-0.44792312 -2.6232147 -1.1115597 1.1
-0.45967981 -2.6043158 -1.1046221 1.1
-0.47413126 -2.5960958 -1.1023096 1.1
-0.48839173 -2.5896947 -1.100768 1.1
-0.50128126 -2.5740709 -1.0953721 1.1
-0.51464564 -2.5639036 -1.0922886 1.1
-0.52716243 -2.5500534 -1.0876635 1.1
-0.54299289 -2.5523901 -1.0899761 1.1
-0.55807889 -2.5510232 -1.090747 1.1
-0.5711816 -2.5386641 -1.0868927 1.1
-0.58452088 -2.5318382 -1.085351 1.1
-0.597817 -2.5230422 -1.0830384 1.1
-0.61190611 -2.5158639 -1.0814968 1.1
-0.62370747 -2.501554 -1.0768718 1.1
-0.64038879 -2.5068605 -1.0807259 1.1
-0.65294832 -2.4959891 -1.0776426 1.1
-0.66683596 -2.4904041 -1.0768718 1.1
-0.68013877 -2.4810638 -1.0745592 1.1
-0.69398499 -2.4772265 -1.0745592 1.1
-0.70757836 -2.4676192 -1.0722467 2.0999999
-0.72134906 -2.4636288 -1.0722467 2.0999999
-0.73341143 -2.4523609 -1.0691632 1.1
-0.75010806 -2.4550252 -1.0722467 1.1
-0.76655322 -2.4596071 -1.0761008 1.1
-0.77748358 -2.4464934 -1.0722467 2.0999999
-0.79127443 -2.4381878 -1.0707049 2.0999999
-0.79850525 -2.4144568 -1.0622257 2.0999999
-0.80016476 -2.2421691 -0.9943912 14.1
-0.8199985 -2.256603 -1.0028706 10.1
-0.83938456 -2.2691512 -1.010579 10.1
-0.85959238 -2.2832778 -1.0190582 10.1
-0.88303328 -2.3039854 -1.0306209 10.1
-0.90098119 -2.3108971 -1.0360169 9.1000004
-0.92475301 -2.3332796 -1.0483505 15.1
-0.94203323 -2.3363087 -1.0522046 10.1
-0.96568441 -2.3545818 -1.0629965 9.1000004
-0.98420048 -2.3609047 -1.0683924 8.1000004
-1.0103236 -2.3859603 -1.0822676 8.1000004
-1.0295721 -2.3917887 -1.0876635 15.1
-1.0529432 -2.4078004 -1.0976845 7.0999999
-1.0787801 -2.4286814 -1.1100181 6.0999999
-1.1068377 -2.4525151 -1.1238934 7.0999999
-1.1289717 -2.4647512 -1.1323726 6.0999999
-1.1563779 -2.4866557 -1.1454771 6.0999999
-1.1852993 -2.5097873 -1.1593522 7.0999999
-1.2040825 -2.513114 -1.1639773 7.0999999
-1.2315251 -2.5306029 -1.17554 4.0999999
-1.2611587 -2.5551281 -1.190186 3.0999999
-1.2915546 -2.5791748 -1.2048322 3.0999999
-1.3269035 -2.6109502 -1.2233324 3.0999999
-1.3600612 -2.63959 -1.240291 5.0999999
-1.3808308 -2.6412857 -1.2449161 7.0999999
-1.4133087 -2.6658993 -1.2603331 10.1
-1.4566008 -2.7097316 -1.2850001 3.0999999
-1.5168258 -2.7820551 -1.3235424 3.0999999
-1.5725002 -2.8462307 -1.3582305 5.0999999
-1.6227372 -2.8964198 -1.3867518 9.1000004
-1.6576179 -2.9191215 -1.4021686 9.1000004
-1.7429125 -3.029794 -1.4599822 3.0999999
-1.8400953 -3.0323832 -1.4815658 4.0999999
-1.8662281 -3.0358844 -1.4885035 2.0999999
-0.22103766 -2.866101 -1.1224986 7.0999999
-0.23396897 -2.8276887 -1.107949 10.1
-0.24827954 -2.8040254 -1.0992193 15.1
-0.26368722 -2.7895195 -1.0941269 16.1
-0.27833426 -2.7787347 -1.0904895 14.1
-0.29286906 -2.7678735 -1.0868522 14.1
-0.30997881 -2.7678843 -1.0875796 14.1
-0.32569745 -2.7642028 -1.0868522 14.1
-0.34209472 -2.7622216 -1.0868522 14.1
-0.35823783 -2.7620528 -1.0875796 14.1
-0.37514114 -2.7673283 -1.0904895 14.1
-0.39237794 -2.7743449 -1.0941269 15.1
-0.40997949 -2.7830977 -1.0984918 3.0999999
-0.42535764 -2.7732499 -1.0955819 1.1
-0.44083968 -2.7708311 -1.0955819 1.1
-0.44027069 -2.6652331 -1.0548432 1.1
-0.46692574 -2.7287605 -1.0810324 2.0999999
-0.48637673 -2.749959 -1.0904895 2.0999999
-0.49899784 -2.726866 -1.0824873 2.0999999
-0.51469511 -2.7239468 -1.0824873 2.0999999
-0.52942312 -2.7135305 -1.0795774 2.0999999
-0.54283941 -2.6994777 -1.0752125 2.0999999
-0.55724484 -2.6908333 -1.0730301 2.0999999
-0.57195699 -2.6839352 -1.0715752 2.0999999
-0.58421552 -2.6660378 -1.0657554 2.0999999
-0.59961617 -2.6607068 -1.0650278 2.0999999
-0.61446691 -2.6573164 -1.0650278 2.0999999
-0.62804103 -2.6464825 -1.0621179 2.0999999
-0.64417535 -2.6445191 -1.0628453 2.0999999
-0.65759057 -2.6335351 -1.0599355 2.0999999
-0.67136246 -2.6242895 -1.0577531 2.0999999
-0.68646604 -2.6203792 -1.0577531 2.0999999
-0.69865191 -2.6055853 -1.0533882 2.0999999
-0.71459454 -2.6031902 -1.0541157 2.0999999
-0.72811592 -2.595571 -1.0526607 2.0999999
-0.74344349 -2.5892842 -1.0519332 2.0999999
-0.75998968 -2.5922425 -1.0548432 2.0999999
-0.77170068 -2.5771141 -1.0504782 3.0999999
-0.78043991 -2.5511115 -1.0417485 3.0999999
-0.7744301 -2.4339414 -0.99737239 4.0999999
-0.77941483 -2.353976 -0.96827328 24.1
-0.8033219 -2.3774104 -0.97991288 10.1
-0.82264954 -2.3905029 -0.98718768 9.1000004
-0.84607053 -2.4119489 -0.99809986 7.0999999
-0.86809641 -2.4298432 -1.007557 7.0999999
-0.89035624 -2.4475627 -1.0170143 7.0999999
-0.91349572 -2.4668531 -1.027199 7.0999999
-0.93754357 -2.4877005 -1.0381111 12.1
-0.96096468 -2.504705 -1.0475683 6.0999999
-0.98282546 -2.5182195 -1.0555706 6.0999999
-1.009241 -2.5438616 -1.0686653 6.0999999
-1.0556334 -2.5713434 -1.0853972 6.0999999
-1.0840572 -2.5978878 -1.0992193 7.0999999
-1.1109091 -2.6209526 -1.1115865 7.0999999
-1.1257932 -2.571943 -1.0963094 35.099998
-1.1352898 -2.5534999 -1.091217 57.099998
-1.1550242 -2.556905 -1.0955819 66.099998
-1.1731687 -2.5588818 -1.0992193 68.099998
-1.2004658 -2.5791066 -1.1108589 15.1
-1.3694098 -2.8970087 -1.2512622 12.1
-1.4016795 -2.9229121 -1.2658118 17.1
-1.4749833 -3.0281873 -1.3152803 14.1
-1.5866125 -3.0323312 -1.3363771 6.0999999
-1.6110365 -3.0363083 -1.3421969 3.0999999
-0.30435082 -3.0331316 -1.1095134 6.0999999
-0.32009771 -3.0201709 -1.1054091 7.0999999
-0.33875027 -3.0200269 -1.1060932 7.0999999
-0.35503745 -3.0086935 -1.1026729 7.0999999
-0.37311634 -3.0083988 -1.103357 7.0999999
-0.39092132 -3.0099275 -1.1047251 7.0999999
-0.40951461 -3.0169375 -1.1081452 7.0999999
-0.42688403 -3.0145288 -1.1081452 10.1
-0.44588462 -3.0231757 -1.1122495 18.1
-0.46666905 -3.0390527 -1.11909 2.0999999
-0.4756532 -2.9862874 -1.1006209 2.0999999
-0.49336573 -2.9834123 -1.1006209 2.0999999
-0.50768495 -2.9638495 -1.0944644 2.0999999
-0.52128142 -2.9443123 -1.0883081 2.0999999
-0.53501922 -2.9208322 -1.0807836 2.0999999
-0.54973745 -2.9066224 -1.0766795 2.0999999
-0.56481463 -2.892242 -1.0725752 2.0999999
-0.57960916 -2.8797286 -1.069155 2.0999999
-0.59389687 -2.8653009 -1.0650507 2.0999999
-0.60960579 -2.8581567 -1.0636827 2.0999999
-0.62565482 -2.8527625 -1.0629987 2.0999999
-0.64050484 -2.839833 -1.0595784 2.0999999
-0.65508419 -2.8307185 -1.0575262 2.0999999
-0.67224556 -2.8305554 -1.0588944 2.0999999
-0.68546957 -2.8119092 -1.0534221 2.0999999
-0.69937545 -2.7987981 -1.0500019 2.0999999
-0.71548367 -2.7947235 -1.0500019 2.0999999
-0.72918522 -2.7814665 -1.0465816 2.0999999
-0.74811471 -2.786166 -1.0500019 2.0999999
-0.76662743 -2.7889261 -1.052738 2.0999999
-0.7801587 -2.7773635 -1.0500019 2.0999999
-0.78205055 -2.7201657 -1.0301647 3.0999999
-0.77605575 -2.6436238 -1.0028031 3.0999999
-0.78911024 -2.5257759 -0.96312875 6.0999999
-0.81290221 -2.5517716 -0.97475743 5.0999999
-0.83893979 -2.5789278 -0.98707014 4.0999999
-0.86456591 -2.6080966 -1.0000669 4.0999999
-0.89192426 -2.6365919 -1.0130637 4.0999999
-0.91841382 -2.6672676 -1.0267445 5.0999999
-0.94356149 -2.6883705 -1.0370051 6.0999999
-0.97484481 -2.7271345 -1.0541061 5.0999999
-1.0072482 -2.7673917 -1.0718912 6.0999999
-1.0609406 -2.8136368 -1.0944644 5.0999999
-1.1025382 -2.8722103 -1.119774 5.0999999
-1.1457232 -2.9340878 -1.1464515 7.0999999
-1.1815068 -2.9765537 -1.1656046 6.0999999
-1.2160385 -3.0113139 -1.1820216 3.0999999
-1.241027 -3.0214293 -1.188862 3.0999999
-1.2627528 -3.0246372 -1.1929662 3.0999999
-1.281827 -3.0227284 -1.1950184 3.0999999
-1.3019735 -3.0202463 -1.1970705 3.0999999
-1.3201011 -3.0144188 -1.1977545 6.0999999
-1.3466067 -3.0273716 -1.205963 3.0999999
-0.78944916 -2.7440963 -0.9648326 7.0999999
-0.81117088 -2.7614596 -0.9725154 2.0999999
-0.84448552 -2.8148167 -0.99300289 3.0999999
-0.87783116 -2.8641033 -1.0122099 3.0999999
-0.91812342 -2.9369192 -1.03974 3.0999999
-0.99990624 -3.0719211 -1.091599 15.1
