# .PCD v0.7 - Point Cloud Data file format
VERSION 0.7
FIELDS x y z intensity
SIZE 4 4 4 4
TYPE F F F F
COUNT 1 1 1 1
WIDTH 1212
HEIGHT 1
VIEWPOINT 0 0 0 1 0 0 0
POINTS 1212
DATA ascii
-4.7346988 4.5277395 -3.1009204 100.1
-4.71244 4.5587049 -3.1034875 100.1
-4.6881986 4.5862169 -3.1043429 100.1
-0.32731572 -4.2930264 -0.30106893 86.099998
-0.42596793 -4.2903776 -0.30148748 86.099998
-0.45033956 -4.2919002 -0.30176651 86.099998
-0.48139572 -4.3326936 -0.3048358 63.099998
-0.50842774 -4.3476839 -0.3060914 86.099998
-0.5344618 -4.3465705 -0.30623093 86.099998
-0.56025189 -4.3493562 -0.30664945 86.099998
-0.58529299 -4.3460574 -0.30664945 86.099998
-0.61086994 -4.3465657 -0.30692849 86.099998
-0.63676125 -4.3488975 -0.30734703 87.099998
-0.662256 -4.34307 -0.30720752 87.099998
-0.68837243 -4.3511271 -0.30804458 87.099998
-0.71385682 -4.3449969 -0.30790508 87.099998
-0.74087888 -4.3526144 -0.30874217 87.099998
-0.76517683 -4.3484087 -0.30874217 87.099998
-0.79203939 -4.3496799 -0.30916068 87.099998
-0.81707853 -4.345046 -0.30916068 86.099998
-0.84474975 -4.3499136 -0.30985826 86.099998
-0.8701809 -4.3469324 -0.30999777 87.099998
-0.89600861 -4.3457565 -0.31027681 86.099998
-0.92226577 -4.3463788 -0.31069532 87.099998
-0.94770902 -4.3429441 -0.31083485 86.099998
-0.97433758 -4.3411374 -0.31111386 86.099998
-0.99991113 -4.3414607 -0.31153241 86.099998
-1.0262764 -4.3414545 -0.31195095 86.099998
-1.0529618 -4.3391657 -0.31222999 86.099998
-1.0798626 -4.3407736 -0.31278804 87.099998
-1.1058313 -4.3383489 -0.31306705 86.099998
-1.1323116 -4.3376989 -0.31348559 87.099998
-1.1590627 -4.3347583 -0.31376463 87.099998
-1.1863455 -4.3335772 -0.31418315 86.099998
-1.2142929 -4.340333 -0.31515974 87.099998
-1.2424314 -4.3385887 -0.31557828 87.099998
-1.2672031 -4.3334966 -0.31571779 87.099998
-1.2944251 -4.3337731 -0.31627586 87.099998
-1.3218663 -4.3317404 -0.31669438 87.099998
-1.3235056 -4.2519011 -0.3113929 24.1
-2.2280223 4.5560074 -0.35464191 75.099998
-2.1948156 4.5543857 -0.35352582 74.099998
-2.0120559 4.2392893 -0.32813445 25.1
-1.9925749 4.2594967 -0.32883203 17.1
-2.0654359 4.5532279 -0.34961945 75.099998
-2.0351083 4.5559402 -0.3489219 75.099998
-2.0008111 4.5514984 -0.34766626 86.099998
-1.9713963 4.5534477 -0.34696871 86.099998
-1.9404321 4.5558882 -0.34627113 86.099998
-1.9087615 4.5541081 -0.34529454 86.099998
-1.8764486 4.5480986 -0.34403893 83.099998
-1.847265 4.5492649 -0.34334135 87.099998
-1.8142656 4.547493 -0.34236476 87.099998
-1.7836723 4.5467229 -0.3415277 87.099998
-1.7537899 4.5497808 -0.34096965 86.099998
-1.7234017 4.5464454 -0.33999306 86.099998
-1.6929117 4.5472436 -0.33929548 86.099998
-1.6639524 4.5494237 -0.33873743 86.099998
-1.6328813 4.5479512 -0.33790037 86.099998
-1.6034732 4.5457106 -0.33706328 86.099998
-1.5740012 4.545444 -0.33636573 86.099998
-1.5431505 4.5433698 -0.33552864 87.099998
-1.4923579 4.478363 -0.33008763 69.099998
-1.3803821 4.2232842 -0.31069532 26.1
-1.3535993 4.2235646 -0.31013727 21.1
-1.3256633 4.2198706 -0.30930021 17.1
-1.2984018 4.2179017 -0.30860263 17.1
-1.275239 4.2291303 -0.30888167 15.1
-1.2512498 4.2404504 -0.30916068 7.0999999
-1.2551339 4.5443406 -0.32966909 87.099998
-1.2276524 4.5435758 -0.32911104 86.099998
-1.197615 4.539206 -0.32827395 86.099998
-1.1704556 4.5421643 -0.32799494 86.099998
-1.142634 4.5389566 -0.32729739 86.099998
-1.113777 4.5379066 -0.32673931 86.099998
-1.0973747 4.5849934 -0.32966909 25.1
-4.4022479 -4.0850973 -2.6738868 10.1
-4.4306879 -3.9698491 -2.648669 34.099998
-4.470583 -3.9580207 -2.6584308 23.1
-4.8475223 -4.1931353 -2.8536644 100.1
-4.8757586 -4.1687083 -2.8561046 100.1
-4.9059415 -4.1473098 -2.860172 100.1
-4.9402814 -4.1263232 -2.8658664 100.1
-4.9752374 -4.1071062 -2.8723741 100.1
-5.0136809 -4.0890584 -2.8805089 100.1
-5.0584865 -4.0773129 -2.8927109 96.099998
-5.1061811 -4.0674634 -2.9065402 88.099998
-5.1668496 -4.0673699 -2.9276903 73.099998
-5.2348957 -4.0723214 -2.952908 47.099998
-5.9712272 -4.3734794 -3.2953804 60.099998
-6.0429668 -4.3711643 -3.3205979 51.099998
-6.1207943 -4.375598 -3.3498831 46.099998
-6.1944156 -4.3729186 -3.3759141 46.099998
-6.2734513 -4.3747926 -3.4051993 46.099998
-6.3466935 -4.3717542 -3.4312303 46.099998
-6.4254017 -4.369978 -3.4597018 45.099998
-6.5058188 -4.3717289 -3.4898005 45.099998
-6.5917845 -4.3745975 -3.5223393 47.099998
-6.331892 -4.0978527 -3.3580177 20.1
-6.3269706 -4.0447106 -3.3433752 41.099998
-6.397922 -4.0352273 -3.3677795 46.099998
-6.47929 -4.0361414 -3.3986914 42.099998
-6.5660915 -4.0347486 -3.4312303 41.099998
-6.6525655 -4.0368757 -3.4645827 41.099998
-6.7438102 -4.0376859 -3.499562 41.099998
-6.8361645 -4.0396762 -3.5353549 39.099998
-6.9319201 -4.0425763 -3.5727746 39.099998
-7.0279331 -4.0445061 -3.6101944 38.099998
-7.1162519 -4.0409513 -3.6435468 37.099998
-7.2150302 -4.0406113 -3.6817801 37.099998
-7.3165455 -4.0422831 -3.7216403 36.099998
-7.4176116 -4.0442128 -3.7615004 36.099998
-7.5235548 -4.0442443 -3.8029876 36.099998
-7.6338935 -4.0470576 -3.8469152 38.099998
-7.7419796 -4.0456886 -3.8892157 39.099998
-7.8456554 -4.0442438 -3.9298894 37.099998
-7.9591088 -4.043128 -3.9746306 38.099998
-8.0688496 -4.0405788 -4.0177445 34.099998
-8.188653 -4.0417504 -4.0657396 34.099998
-8.2897205 -4.0306373 -4.1039729 18.1
-8.4323769 -4.0419278 -4.1633563 30.1
-8.5595999 -4.0424495 -4.2146053 27.1
-8.697751 -4.0447445 -4.2707348 28.1
-8.8298302 -4.0463409 -4.3244238 27.1
-8.9643135 -4.0418935 -4.3781133 28.1
-9.1019621 -4.0429411 -4.4342427 27.1
-9.2539968 -4.0468192 -4.4968805 29.1
-8.993125 4.4798875 -4.4732895 38.099998
-8.8676338 4.4774218 -4.4228544 39.099998
-8.7376852 4.4789991 -4.3716054 39.099998
-8.6209621 4.4820528 -4.3260508 41.099998
-8.5028801 4.4830599 -4.2796831 40.099998
-8.3866873 4.4837189 -4.2341285 40.099998
-8.271595 4.4855037 -4.1893873 41.099998
-8.1575632 4.4846587 -4.1446462 40.099998
-8.0438185 4.4826503 -4.0999055 41.099998
-7.9335527 4.4812794 -4.0567913 41.099998
-7.8315001 4.4833274 -4.0177445 41.099998
-7.7344303 4.4871001 -3.9811382 43.099998
-7.630496 4.4875331 -3.941278 48.099998
-7.5346766 4.4880047 -3.9046717 46.099998
-7.4281402 4.484478 -3.8631847 43.099998
-7.3226957 4.4785686 -3.8216975 41.099998
-6.7050228 4.1540508 -3.5117643 21.1
-6.7328668 4.2267952 -3.5394223 21.1
-6.5110593 4.1400185 -3.4352977 21.1
-6.4287333 4.1398606 -3.4043858 13.1
-6.3588705 4.1468773 -3.3799815 11.1
-6.292191 4.155241 -3.3572042 4.0999999
-6.525382 4.473043 -3.5223393 46.099998
-6.4476948 4.4762597 -3.4946811 46.099998
-6.3694873 4.4765506 -3.4662097 56.099998
-6.291492 4.4760904 -3.4377382 60.099998
-6.215899 4.4781022 -3.4108934 65.099998
-6.1435452 4.4783082 -3.3848624 58.099998
-6.1918349 4.5700207 -3.4263494 27.1
-5.3205376 4.4234734 -3.0806234 30.1
-5.1432405 4.3787889 -3.0074108 84.099998
-5.0902486 4.384491 -2.9911413 90.099998
-5.0442495 4.3957305 -2.9789391 94.099998
-5.0037727 4.4114189 -2.969991 100.1
-4.9661918 4.4262705 -2.9618561 100.1
-4.9301453 4.4500413 -2.9569755 100.1
-4.8971181 4.4701161 -2.9520946 100.1
-4.8691635 4.4978576 -2.9512811 100.1
-4.8418422 4.5245795 -2.9504676 100.1
-4.81703 4.5536466 -2.9512811 100.1
-4.7886033 4.5808883 -2.9504676 100.1
-4.7700176 4.6160159 -2.9553485 100.1
-0.30318156 -4.2926297 -0.2006814 101.1
-0.33109027 -4.3226271 -0.20217209 102.1
-0.35522708 -4.3207107 -0.20217209 102.1
-0.38028172 -4.3205833 -0.20226525 102.1
-0.40647465 -4.3242178 -0.20254475 102.1
-0.43042108 -4.3198919 -0.20245159 102.1
-0.45475024 -4.3194075 -0.20254475 102.1
-0.48134866 -4.3185349 -0.20263791 102.1
-0.506679 -4.3196592 -0.20282425 102.1
-0.53254783 -4.3185592 -0.20291741 102.1
-0.55792379 -4.3193831 -0.20310375 102.1
-0.58332694 -4.3200579 -0.20329008 102.1
-0.60903507 -4.3225613 -0.20356958 102.1
-0.63392103 -4.3189816 -0.20356958 102.1
-0.66014278 -4.3190937 -0.20375592 102.1
-0.68488044 -4.3192859 -0.20394225 102.1
-0.71147317 -4.3210597 -0.20422176 102.1
-0.73668462 -4.3188596 -0.20431492 102.1
-0.76183486 -4.32058 -0.20459442 102.1
-0.78781873 -4.3179488 -0.20468758 102.1
-0.81378484 -4.3192296 -0.20496708 102.1
-0.83978271 -4.3162851 -0.20506026 102.1
-0.86580718 -4.3172536 -0.20533976 102.1
-0.8926788 -4.3219781 -0.20580558 102.1
-0.91838741 -4.320673 -0.20599192 102.1
-0.94411057 -4.3192153 -0.20617825 102.1
-0.97103912 -4.3193846 -0.20645775 102.1
-0.99559695 -4.3158407 -0.20655093 102.1
-1.0222788 -4.317811 -0.20692359 102.1
-1.0483549 -4.3136101 -0.20701675 102.1
-1.074631 -4.3133163 -0.20729625 102.1
-1.1009383 -4.3128624 -0.20757575 102.1
-1.1267707 -4.3103156 -0.20776209 102.1
-1.1495119 -4.2960348 -0.20738943 78.099998
-2.0273147 4.5427499 -0.23198548 102.1
-1.9922885 4.5364084 -0.2310538 101.1
-1.964542 4.5419636 -0.2307743 102.1
-1.9289507 4.53332 -0.22974947 101.1
-1.8989507 4.5351405 -0.22928363 101.1
-1.8697857 4.5364399 -0.22881781 102.1
-1.8406655 4.5375557 -0.22835197 102.1
-1.8077353 4.5357237 -0.2276998 102.1
-1.7772077 4.5348997 -0.2271408 102.1
-1.7452406 4.5323153 -0.22648863 102.1
-1.7163628 4.53265 -0.22602279 102.1
-1.6845608 4.5296474 -0.22537063 101.1
-1.6550162 4.529892 -0.22490479 101.1
-1.6260829 4.5339918 -0.22462529 102.1
-1.5967516 4.5316973 -0.22406629 102.1
-1.5667061 4.52949 -0.22350729 102.1
-1.5378746 4.5330315 -0.22322778 102.1
-1.5079552 4.5304403 -0.22266878 102.1
-1.4799768 4.5333529 -0.22238928 102.1
-1.4489696 4.5265799 -0.22164395 102.1
-1.4204822 4.5272255 -0.22127129 102.1
-1.3914483 4.5257835 -0.22080545 102.1
-1.3642064 4.5298967 -0.22061911 102.1
-1.3333484 4.524498 -0.21996695 101.1
-1.2208912 4.2326493 -0.20543292 37.099998
-1.1883534 4.2107701 -0.20403542 37.099998
-1.159627 4.2042665 -0.20338325 34.099998
-1.1345667 4.2048907 -0.20310375 31.1
-1.1090854 4.2096176 -0.20301057 24.1
-1.083328 4.2101312 -0.20273109 20.1
-1.0977865 4.3672452 -0.2099981 31.1
-1.0810052 4.5235739 -0.21689244 102.1
-1.053574 4.5238876 -0.21661295 102.1
-1.0240607 4.5183697 -0.21605395 101.1
-0.99794817 4.5201168 -0.21586761 102.1
-0.9706887 4.5240059 -0.21577445 102.1
-0.94257706 4.519743 -0.21530861 101.1
-0.91732287 4.5290127 -0.21549495 92.099998
-0.91583908 4.6637621 -0.22164395 32.099998
-4.4075532 -4.3799462 -2.5954382 64.099998
-4.4595885 -4.3824258 -2.6116259 66.099998
-4.5133185 -4.382884 -2.6278136 71.099998
-4.565114 -4.3823776 -2.6432307 68.099998
-4.6157131 -4.3801484 -2.6578767 66.099998
-4.6685476 -4.3779287 -2.6732936 64.099998
-4.7267561 -4.3831573 -2.6925647 62.099998
-4.777174 -4.3774734 -2.70644 69.099998
-4.4767733 -4.0550208 -2.5229785 16.1
-4.4904299 -4.0205522 -2.5175827 24.1
-4.5336666 -3.9661305 -2.516041 25.1
-4.5836492 -3.9620876 -2.5306871 8.1000004
-4.9872079 -4.1625638 -2.7133775 100.1
-5.013947 -4.1361194 -2.7149193 100.1
-5.0484166 -4.1144547 -2.7203152 100.1
-5.0892773 -4.0992017 -2.7295654 100.1
-5.1286855 -4.0824642 -2.7380447 97.099998
-5.17242 -4.0688319 -2.7488365 92.099998
-5.2205386 -4.058228 -2.761941 79.099998
-5.2869763 -4.0597725 -2.7842953 57.099998
-5.3668971 -4.0736966 -2.8143585 37.099998
-5.4467902 -4.0348277 -2.8313169 58.099998
-5.4967446 -4.0230088 -2.8451922 55.099998
-5.5653911 -4.0227528 -2.8683176 58.099998
-5.6358252 -4.0259347 -2.8929846 55.099998
-5.7048569 -4.024334 -2.91611 49.099998
-5.7779069 -4.026228 -2.9415479 51.099998
-5.8496461 -4.0263662 -2.9662151 51.099998
-5.9238057 -4.0258145 -2.991653 49.099998
-5.9998221 -4.0286741 -3.0186327 49.099998
-6.0782952 -4.0307684 -3.0463829 49.099998
-6.1607814 -4.0330381 -3.0756752 42.099998
-6.2405477 -4.0356464 -3.1041965 51.099998
-6.3189788 -4.0364952 -3.1319468 48.099998
-6.4059696 -4.037178 -3.1627808 47.099998
-6.4863877 -4.0374207 -3.1913021 47.099998
-6.5754099 -4.0373135 -3.2229066 46.099998
-6.664134 -4.0407138 -3.2552822 46.099998
-6.7529268 -4.0399427 -3.2868869 46.099998
-6.8491836 -4.0441446 -3.3223457 45.099998
-6.9409266 -4.0445824 -3.3554921 45.099998
-7.0312996 -4.0431767 -3.3878677 43.099998
-7.128305 -4.0445056 -3.4233267 45.099998
-7.2149892 -4.0372801 -3.4533896 36.099998
-7.3075953 -4.0340095 -3.486536 31.1
-7.4223862 -4.0434561 -3.5304742 36.099998
-7.5275407 -4.0430007 -3.5690165 35.099998
-7.6289811 -4.0410423 -3.6060171 35.099998
-7.7329865 -4.0375533 -3.6437886 33.099998
-7.8505745 -4.0433116 -3.6884975 33.099998
-7.9583573 -4.0392518 -3.7278109 33.099998
-8.0739145 -4.0395904 -3.7709782 33.099998
-4.8479347 -0.94146502 -2.0627837 4.0999999
-4.8641586 -0.91557568 -2.0674088 4.0999999
-4.84938 -0.88390493 -2.0589294 6.0999999
-4.8507557 -0.85531908 -2.0573876 7.0999999
-4.8537822 -0.82705671 -2.0566168 9.1000004
-4.8476782 -0.79644424 -2.0519917 10.1
-4.8448939 -0.7673558 -2.0489085 15.1
-4.8401113 -0.73804766 -2.0450542 16.1
-4.8424559 -0.70989084 -2.0442834 16.1
-4.8429279 -0.68062913 -2.0427415 18.1
-4.8394518 -0.65173948 -2.0396583 18.1
-4.8376341 -0.62314826 -2.0373456 19.1
-4.8374796 -0.59482485 -2.035804 19.1
-4.8426585 -0.56716794 -2.0365748 20.1
-4.8383198 -0.54013944 -2.0334914 19.1
-4.8287706 -0.50837636 -2.0280955 21.1
-4.8352075 -0.48176557 -2.0296373 21.1
-4.832469 -0.45254833 -2.0273247 20.1
-4.8349953 -0.42470795 -2.0273247 21.1
-4.8300037 -0.39624992 -2.0242414 21.1
-4.8377905 -0.36800122 -2.0265539 21.1
-4.8361483 -0.33987284 -2.0250123 27.1
-4.8342876 -0.31261936 -2.0234704 26.1
-4.8360577 -0.28392678 -2.0234704 26.1
-4.8394556 -0.25616607 -2.0242414 24.1
-4.8353205 -0.22802792 -2.0219288 26.1
-4.8328657 -0.20002222 -2.0203872 25.1
-4.8376265 -0.17231514 -2.0219288 25.1
-4.836719 -0.14355047 -2.021158 27.1
-4.8337755 -0.11560249 -2.0196164 26.1
-4.8380518 -0.087827176 -2.021158 25.1
-4.8329515 -0.059048578 -2.0188453 26.1
-4.8313603 -0.032043267 -2.0180745 26.1
-4.8388476 -0.0033781533 -2.021158 27.1
-4.8350959 0.024472827 -2.0196164 25.1
-4.8311419 0.30394971 -2.0219288 25.1
-4.8310947 0.33273956 -2.0226996 25.1
-4.8309383 0.36069641 -2.0234704 25.1
-4.8324599 0.38881049 -2.0250123 25.1
-4.8338175 0.41695404 -2.0265539 25.1
-4.831336 0.44478777 -2.0265539 22.1
-4.8212647 0.47272915 -2.0234704 26.1
-4.833147 0.50201494 -2.0296373 25.1
-4.8321023 0.52920127 -2.0304081 22.1
-4.8379459 0.55976939 -2.0342624 23.1
-4.834744 0.58678073 -2.0342624 24.1
-4.836669 0.61615986 -2.0365748 23.1
-4.8330398 0.64400667 -2.0365748 20.1
-4.8311958 0.67124325 -2.0373456 21.1
-4.8326063 0.70069462 -2.0396583 21.1
-4.8357902 0.72961795 -2.0427415 24.1
-4.8315077 0.75745785 -2.0427415 20.1
-4.8360348 0.78759831 -2.0465958 27.1
-4.8333807 0.81490219 -2.0473666 26.1
-4.8284597 0.84356958 -2.0473666 20.1
-4.8362336 0.87366188 -2.0527627 19.1
-4.8345923 0.90302277 -2.0543044 17.1
-4.8349099 0.93105692 -2.0566168 19.1
-4.8330879 0.95960724 -2.0581586 19.1
-4.8417721 0.99123138 -2.0643253 16.1
-4.8377886 1.0194819 -2.0650961 18.1
-4.8408546 1.0492833 -2.0689504 14.1
-4.8401346 1.078351 -2.0712628 15.1
-4.8374414 1.1070335 -2.0728047 12.1
-4.8451591 1.1390986 -2.0789714 10.1
-4.8387218 1.1661413 -2.0789714 8.1000004
-4.8404651 1.197894 -2.0828257 7.0999999
-4.8444328 1.2276294 -2.0874507 7.0999999
-4.8462133 1.2578291 -2.091305 5.0999999
-4.8511486 1.2898843 -2.0967009 5.0999999
-4.8616772 1.3217998 -2.1044092 4.0999999
-4.862638 1.3530997 -2.1082635 3.0999999
-7.8414865 4.4926791 -3.7748325 37.099998
-7.735682 4.491436 -3.73629 37.099998
-7.6389136 4.4960728 -3.7023728 42.099998
-7.5312538 4.4895282 -3.6622889 47.099998
-7.4333997 4.4911942 -3.6276009 47.099998
-6.8202939 4.174571 -3.3400753 33.099998
-7.2431483 4.490942 -3.5597663 42.099998
-7.1460514 4.4896646 -3.5250783 51.099998
-7.0095286 4.4604044 -3.4703481 21.1
-6.5928078 4.2487745 -3.2760952 15.1
-6.7836113 4.4831672 -3.396347 55.099998
-6.7001467 4.4853573 -3.3678257 48.099998
-6.6184626 4.484406 -3.3393044 51.099998
-6.5362172 4.4838243 -3.3107831 55.099998
-6.4549332 4.4846249 -3.2830327 55.099998
-6.376164 4.4845691 -3.256053 57.099998
-6.2961078 4.4826851 -3.2283027 51.099998
-5.77988 4.167048 -2.9762361 23.1
-5.6968794 4.1557593 -2.9454021 22.1
-5.6290693 4.1576948 -2.9230475 13.1
-5.5710325 4.1646328 -2.9053183 9.1000004
-5.524878 4.1799483 -2.8937554 4.0999999
-5.730669 4.4934182 -3.0417578 68.099998
-5.6606607 4.4898028 -3.0178616 67.099998
-5.5971575 4.4954071 -2.9985905 69.099998
-5.5282078 4.4926524 -2.9754651 68.099998
-5.3568444 4.404861 -2.8968389 41.099998
-5.2788944 4.3919692 -2.8683176 68.099998
-5.2273297 4.4018202 -2.8544424 79.099998
-5.1653662 4.4007368 -2.8344004 90.099998
-5.1231599 4.4159551 -2.8251503 97.099998
-4.7526984 4.1445823 -2.6339805 30.1
-4.7176771 4.1621199 -2.6278136 29.1
-4.7033529 4.1949539 -2.6324387 27.1
-4.7029233 4.2479267 -2.6470847 23.1
-4.7377162 4.3276463 -2.6802311 28.1
-4.741766 4.3832436 -2.6971898 22.1
-4.6153464 4.3159442 -2.6393764 15.1
-4.5622582 4.3158216 -2.6231885 28.1
-4.532568 4.3389902 -2.6208761 32.099998
-4.5141311 4.3714428 -2.6247303 37.099998
-4.5001945 4.4069157 -2.630897 33.099998
-4.4949379 4.4543271 -2.6432307 25.1
-4.4809384 4.4919009 -2.6501682 27.1
-4.4562888 4.5189486 -2.650939 30.1
-4.4765635 4.592113 -2.6786895 8.1000004
-0.15635943 -4.3260088 -0.10050274 101.1
-0.18152392 -4.3310294 -0.100642 101.1
-0.2056151 -4.327951 -0.10059559 101.1
-0.23140065 -4.328651 -0.100642 101.1
-0.25696456 -4.3252058 -0.10059559 101.1
-0.28226179 -4.3296399 -0.10073484 101.1
-0.30705234 -4.3259478 -0.10068843 74.099998
-0.33256409 -4.3220558 -0.100642 101.1
-0.3573558 -4.3281021 -0.10082769 101.1
-0.38245383 -4.3279638 -0.10087411 101.1
-0.40756613 -4.3196459 -0.10073484 74.099998
-0.43248084 -4.3252606 -0.10092054 101.1
-0.45642075 -4.3207893 -0.10087411 101.1
-0.48325062 -4.3218946 -0.10096695 101.1
-0.50836843 -4.3210254 -0.10101338 101.1
-0.53424621 -4.3199172 -0.1010598 101.1
-0.55937499 -4.3187513 -0.10110622 101.1
-0.5850445 -4.3214021 -0.10124549 101.1
-0.61048347 -4.3219204 -0.10133833 101.1
-0.63594776 -4.322289 -0.10143117 101.1
-0.66249377 -4.3243685 -0.10157043 101.1
-0.68663514 -4.320601 -0.10157043 101.1
-0.71323848 -4.3223686 -0.1017097 101.1
-0.73845845 -4.3201599 -0.10175613 101.1
-0.76431459 -4.3258128 -0.10198823 101.1
-0.78997087 -4.3212013 -0.10198823 101.1
-0.8155877 -4.3205094 -0.10208108 101.1
-0.84274179 -4.3234434 -0.10226676 101.1
-0.86841661 -4.3224387 -0.1023596 101.1
-0.89410776 -4.321281 -0.10245245 101.1
-0.91939801 -4.3180156 -0.10249887 101.1
-0.94553554 -4.3185081 -0.10263813 101.1
-0.97246301 -4.3186731 -0.1027774 101.1
-1.842086 4.5456119 -0.11387216 101.1
-1.8091069 4.5437765 -0.11354721 101.1
-1.7785333 4.5429492 -0.11326867 101.1
-1.7450831 4.5366278 -0.11285088 101.1
-1.7161816 4.536953 -0.11261877 75.099998
-1.6878362 4.5433083 -0.11252593 101.1
-1.6575278 4.5416846 -0.1122474 101.1
-1.6271762 4.5420289 -0.11201529 75.099998
-1.5984644 4.5416155 -0.11178318 101.1
-1.5677097 4.5375175 -0.11145823 101.1
-1.5381892 4.539166 -0.11127255 101.1
-1.5101277 4.5422578 -0.11113328 75.099998
-1.4796022 4.5375738 -0.11080834 75.099998
-1.4497899 4.5345931 -0.1105298 101.1
-1.4224528 4.5390525 -0.11043696 101.1
-1.3939385 4.5395241 -0.11025127 101.1
-1.3654662 4.5398183 -0.11006559 101.1
-1.3351153 4.5363326 -0.10978705 101.1
-1.3061985 4.5343404 -0.10955495 75.099998
-1.2778915 4.5340905 -0.10936926 101.1
-1.2493705 4.5358105 -0.10923 101.1
-1.220377 4.5292034 -0.10890505 101.1
-1.19297 4.5344319 -0.10885862 101.1
-1.1643461 4.5315447 -0.10862651 101.1
-1.1287972 4.4972515 -0.10765167 60.099998
-1.0322293 4.2183733 -0.10082769 25.1
-1.005596 4.2145243 -0.10059559 23.1
-0.97904134 4.2105083 -0.10036348 22.1
-0.9527148 4.2103934 -0.10022421 22.1
-0.93047589 4.2215066 -0.10036348 18.1
-0.90708387 4.2347741 -0.10054916 11.1
-0.81303966 4.1479297 -0.09813524 17.1
-0.83469665 4.3881149 -0.10370583 23.1
-0.80646962 4.5274944 -0.10676965 101.1
-0.77936202 4.5261531 -0.10663039 101.1
-0.75262457 4.5266218 -0.10653754 101.1
-0.73065621 4.5565467 -0.10714103 52.099998
-3.7027893 -4.3785582 -2.2391775 47.099998
-3.7497473 -4.3826399 -2.2522719 61.099998
-3.7952008 -4.3828449 -2.2639117 66.099998
-3.840023 -4.3833351 -2.2755513 70.099998
-3.8817403 -4.3813419 -2.2857358 66.099998
-3.9250829 -4.3776498 -2.2959206 63.099998
-3.9727609 -4.3798084 -2.3090153 63.099998
-4.0205932 -4.3815627 -2.3221099 63.099998
-4.0673094 -4.3815446 -2.3344769 63.099998
-4.1128826 -4.3797755 -2.3461165 65.099998
-4.4086418 -4.3779707 -2.4261391 68.099998
-4.4569507 -4.3767757 -2.4392338 66.099998
-4.5162683 -4.3826866 -2.4574208 70.099998
-4.5642905 -4.3785267 -2.4697878 68.099998
-4.6178217 -4.3790865 -2.485065 66.099998
-4.6736331 -4.3796325 -2.5010695 68.099998
-4.7253504 -4.3787875 -2.515619 68.099998
-4.7814794 -4.3783488 -2.5316236 71.099998
-4.8356228 -4.3769917 -2.5469005 68.099998
-4.857975 -4.3465834 -2.5454457 21.1
-4.5668507 -4.0375671 -2.3803082 21.1
-4.5795107 -4.0034146 -2.3752158 31.1
-4.6045966 -3.977387 -2.3759432 28.1
-4.6401801 -3.9616876 -2.3824906 21.1
-5.0202875 -4.187201 -2.5527203 77.099998
-5.0256329 -4.1428118 -2.5432632 76.099998
-5.0299044 -4.096446 -2.5330784 79.099998
-5.0403533 -4.0568948 -2.5265312 79.099998
-5.0475974 -4.0150404 -2.5185289 76.099998
-5.1013961 -4.0100799 -2.5338058 61.099998
-5.1685457 -4.0149179 -2.5556302 57.099998
-5.2321863 -4.0147977 -2.5752723 54.099998
-5.3005414 -4.0204144 -2.5978241 53.099998
-5.3653517 -4.0211029 -2.6181934 47.099998
-5.4340405 -4.0224462 -2.6400177 49.099998
-5.4992228 -4.0218759 -2.660387 47.099998
-5.5743408 -4.0262604 -2.6851213 53.099998
-5.64223 -4.0275359 -2.7069457 53.099998
-5.7086668 -4.0240378 -2.7273152 46.099998
-5.7806726 -4.0251579 -2.7505944 53.099998
-5.8498092 -4.0234699 -2.7724187 50.099998
-5.9275246 -4.0253177 -2.7978804 46.099998
-5.9994187 -4.0253654 -2.8211598 50.099998
-6.0768585 -4.026762 -2.8466215 48.099998
-6.1536551 -4.0253053 -2.8713558 45.099998
-6.2386303 -4.0313187 -2.900455 46.099998
-6.3160105 -4.0314956 -2.9259167 52.099998
-6.3988485 -4.0295701 -2.9528334 38.099998
-6.4623857 -4.0193515 -2.9717476 34.099998
-6.5725675 -4.0324097 -3.0110316 55.099998
-6.6539412 -4.0313573 -3.0379481 48.099998
-6.7465067 -4.0329046 -3.0692298 48.099998
-6.8386183 -4.0346875 -3.1005113 45.099998
-6.9293623 -4.0346045 -3.1310654 48.099998
-7.021945 -4.0345364 -3.1623471 45.099998
-7.1163754 -4.0344534 -3.194356 45.099998
-4.8628879 -1.9233902 -2.0420308 3.0999999
-4.8614006 -1.8914721 -2.0369384 5.0999999
-4.8499165 -1.8539431 -2.0274813 6.0999999
-4.8465619 -1.8207376 -2.0216615 10.1
-4.8412385 -1.7869873 -2.0151141 13.1
-4.8409419 -1.7552639 -2.0107493 14.1
-4.8389864 -1.722134 -2.005657 15.1
-4.8435488 -1.6923915 -2.0034745 16.1
-4.8373556 -1.6590273 -1.9969271 17.1
-4.8432994 -1.6299503 -1.9954722 17.1
-4.8437614 -1.5991079 -1.9918349 18.1
-4.8422565 -1.5677403 -1.9874699 19.1
-4.8425956 -1.5361618 -1.9838326 19.1
-4.8439837 -1.5068783 -1.9809227 19.1
-4.8398504 -1.4759969 -1.9758303 20.1
-4.8398499 -1.4437418 -1.9721929 23.1
-4.8409319 -1.4137534 -1.969283 23.1
-4.8420706 -1.3829556 -1.9663731 23.1
-4.8463669 -1.3540418 -1.9649181 23.1
-4.8450994 -1.3236516 -1.9612807 23.1
-4.8472428 -1.2942822 -1.9590983 23.1
-4.8528142 -1.2658725 -1.9583708 23.1
-4.8512135 -1.2347555 -1.9547335 23.1
-4.8489943 -1.205395 -1.9510961 23.1
-4.8518243 -1.1782626 -1.9496411 23.1
-4.8555055 -1.146898 -1.9481862 22.1
-4.8582039 -1.1189258 -1.9467312 21.1
-4.8629403 -1.0896697 -1.9460037 21.1
-4.861855 -1.0600557 -1.9430938 22.1
-4.8605895 -1.0304905 -1.9401839 21.1
-4.8666191 -1.0016292 -1.9401839 21.1
-4.8649998 -0.97212285 -1.937274 20.1
-4.8686891 -0.94373202 -1.9365466 17.1
-4.8722129 -0.91533089 -1.935819 18.1
-4.8737383 -0.88658708 -1.9343641 18.1
-4.8732591 -0.85753322 -1.9321816 18.1
-4.8817906 -0.83007574 -1.9336365 18.1
-4.8829536 -0.80048943 -1.9321816 17.1
-4.8819623 -0.77148014 -1.9299992 18.1
-4.8863249 -0.74334937 -1.9299992 18.1
-4.8905253 -0.71519399 -1.9299992 18.1
-4.8965282 -0.68641925 -1.9307266 18.1
-4.8985538 -0.65795803 -1.9299992 17.1
-4.8985667 -0.62925893 -1.9285443 17.1
-4.9021096 -0.60103494 -1.9285443 18.1
-4.9073405 -0.57300705 -1.9292717 18.1
-4.9103689 -0.54644752 -1.9292717 17.1
-4.9118524 -0.51538974 -1.9285443 16.1
-4.9202161 -0.4885011 -1.9307266 16.1
-4.9211731 -0.45912245 -1.9299992 15.1
-4.9330153 -0.43158293 -1.9336365 15.1
-4.94099 -0.40361884 -1.935819 12.1
-4.9767361 -0.37682334 -1.9489136 14.1
-4.9280567 0.48493698 -1.9336365 21.1
-4.9699287 0.81118524 -1.9663731 10.1
-4.9561357 0.83737791 -1.9627358 17.1
-4.9290586 0.86291814 -1.954006 13.1
-4.9240065 0.89129299 -1.954006 15.1
-4.9186311 0.92049676 -1.954006 16.1
-4.913413 0.9479531 -1.954006 16.1
-4.9042177 0.97550952 -1.952551 17.1
-4.9092927 1.0068401 -1.9569159 17.1
-4.9070578 1.0358684 -1.9583708 17.1
-4.8973689 1.063323 -1.9569159 17.1
-4.8984365 1.0931351 -1.9598258 17.1
-4.8938756 1.1217461 -1.9605533 18.1
-4.8925729 1.152048 -1.9627358 17.1
-4.8842516 1.178918 -1.9620082 17.1
-4.8823838 1.2100766 -1.9641907 17.1
-4.8791609 1.2382425 -1.9656457 17.1
-4.8773575 1.2677298 -1.967828 17.1
-4.8751493 1.2980881 -1.9700105 16.1
-4.8750138 1.3272533 -1.9729204 16.1
-4.8670521 1.3561587 -1.9729204 17.1
-4.8699107 1.3872305 -1.9772853 16.1
-4.8674536 1.4159687 -1.9794677 18.1
-4.8622847 1.4467382 -1.9809227 18.1
-4.8648243 1.4771192 -1.9852875 18.1
-4.8577528 1.5065134 -1.986015 18.1
-4.8561001 1.5367151 -1.988925 18.1
-4.8489418 1.565231 -1.9896524 18.1
-4.8522334 1.5972102 -1.9947448 18.1
-4.8535509 1.6286865 -1.9991096 18.1
-4.8455634 1.6580623 -1.999837 18.1
-4.8482475 1.6902362 -2.0049295 18.1
-4.8439989 1.7191567 -2.0071118 17.1
-4.8459759 1.7523057 -2.0122042 18.1
-4.8445444 1.7834054 -2.0158417 19.1
-4.8460875 1.8166996 -2.0209339 18.1
-4.8410878 1.8457279 -2.0231164 18.1
-4.8404708 1.8784668 -2.0274813 18.1
-4.8399687 1.9104187 -2.031846 17.1
-4.8392587 1.9424269 -2.036211 17.1
-4.837996 1.9753346 -2.040576 16.1
-4.8389339 2.0073211 -2.0456681 15.1
-4.8410258 2.0409477 -2.0514879 15.1
-4.8373909 2.0733085 -2.0551255 15.1
-4.8359857 2.1047537 -2.0594902 13.1
-4.8417783 2.1425486 -2.0674925 11.1
-4.8433318 2.1756637 -2.0733123 11.1
-4.8391957 2.2073889 -2.0769498 10.1
-4.8462958 2.2454648 -2.0856795 7.0999999
-4.8484554 2.2804763 -2.0922267 5.0999999
-4.8503714 2.315587 -2.0987742 5.0999999
-4.862103 2.3556693 -2.1096864 3.0999999
-4.8685174 2.393497 -2.1184161 1.1
-6.7107821 4.2194648 -3.0954189 12.1
-6.9779892 4.5004554 -3.2423697 41.099998
-6.8880019 4.4988022 -3.212543 48.099998
-6.7967134 4.4952354 -3.181989 48.099998
-6.7157469 4.4991961 -3.156527 48.099998
-6.6319199 4.4969029 -3.1288829 48.099998
-6.5460095 4.4939032 -3.1005113 48.099998
-6.4641609 4.4943824 -3.0743222 52.099998
-6.3894172 4.4972248 -3.0510428 50.099998
-6.3072705 4.4939513 -3.0241261 60.099998
-6.2291236 4.4942389 -2.9993918 54.099998
-6.1542706 4.4927092 -2.9753852 54.099998
-6.0900478 4.5014658 -2.9571981 57.099998
-6.0103173 4.4962916 -2.9310091 60.099998
-5.9382763 4.4959726 -2.908457 53.099998
-5.8708763 4.4983735 -2.8880877 56.099998
-5.8021746 4.4990063 -2.8669908 54.099998
-5.7351274 4.5001483 -2.8466215 60.099998
-5.670506 4.5008368 -2.8269796 71.099998
-5.5557795 4.4653654 -2.7833309 33.099998
-5.1252666 4.1681628 -2.5796371 27.1
-5.0594563 4.1632838 -2.5585401 19.1
-4.9996004 4.1625543 -2.5403533 13.1
-4.9277987 4.1525326 -2.5163465 27.1
-4.8853703 4.1651325 -2.5068893 27.1
-4.8260322 4.1627803 -2.4887023 17.1
-4.7753062 4.167233 -2.4748802 30.1
-4.7442427 4.1885028 -2.4712429 32.099998
-4.7368007 4.227756 -2.4792452 28.1
-4.8276205 4.3636208 -2.5410807 48.099998
-4.907681 4.486043 -2.596369 52.099998
-4.66079 4.311408 -2.4792452 20.1
-4.6054063 4.3596859 -2.4763353 28.1
-4.5861807 4.3933821 -2.4799726 14.1
0.018045256 -4.3079624 0 43.099998
-0.031725612 -4.3278837 0 101.1
-0.05662559 -4.3256292 0 102.1
-0.082331292 -4.3272166 0 102.1
-0.10720321 -4.3246713 0 102.1
-0.13141565 -4.3260045 0 101.1
-0.15708423 -4.3251486 0 102.1
-0.18216075 -4.3281684 0 102.1
-0.20614031 -4.3230882 0 102.1
-0.23189737 -4.3237858 0 102.1
-0.25755098 -4.3223333 0 101.1
-0.28244144 -4.3207784 0 102.1
-0.30774835 -4.3250651 0 102.1
-0.33356202 -4.3251567 0 102.1
-0.35771292 -4.3232265 0 101.1
-0.38278326 -4.3230867 0 102.1
-0.4086183 -4.3227301 0 102.1
-0.4329538 -4.3223705 0 101.1
-0.45771894 -4.3258519 0 102.1
-0.48413536 -4.3229752 0 101.1
-0.50902575 -4.3201151 0 101.1
-0.53514433 -4.3209877 0 101.1
-0.56053692 -4.3218007 0 102.1
-0.5854193 -4.3185005 0 102.1
-0.61056226 -4.3170376 0 102.1
-0.63599932 -4.3174067 0 102.1
-0.6622144 -4.3175106 0 102.1
-0.68694597 -4.3176947 0 102.1
-0.71320736 -4.3174891 0 101.1
-0.73873699 -4.3172522 0 101.1
-0.76318574 -4.3150287 0 101.1
-0.78913808 -4.3123913 0 101.1
-1.659923 4.5507135 0 75.099998
-1.6288443 4.5491858 0 75.099998
-1.6007569 4.5506654 0 75.099998
-1.5706038 4.5484667 0 101.1
-1.5416605 4.5520234 0 75.099998
-1.5122641 4.5513377 0 75.099998
-1.482927 4.5504642 0 75.099998
-1.4524325 4.5455937 0 75.099998
-1.4244347 4.5481582 0 75.099998
-1.3952819 4.5467267 0 75.099998
-1.3661931 4.5451107 0 75.099998
-1.3375049 4.5473819 0 75.099998
-1.3090786 4.5473218 0 75.099998
-1.2806976 4.5470858 0 75.099998
-1.251569 4.5468926 0 101.1
-1.2240751 4.5460868 0 75.099998
-1.1940255 4.5416646 0 75.099998
-1.166853 4.5445924 0 75.099998
-1.1395069 4.5432787 0 75.099998
-1.1101514 4.5402465 0 75.099998
-1.0830556 4.5426745 0 75.099998
-1.0559685 4.5449409 0 75.099998
-1.0267746 4.5413733 0 75.099998
-0.99924421 4.537271 0 101.1
-0.89319527 4.173491 0 23.1
-0.86384833 4.153111 0 20.1
-0.85258585 4.2207503 0 22.1
-0.82483405 4.2119961 0 21.1
-0.80055034 4.2126079 0 22.1
-0.77517653 4.2153168 0 21.1
-0.7519365 4.2256188 0 13.1
-0.73436719 4.2693009 0 8.1000004
-0.72594553 4.5322294 0 73.099998
-0.69952494 4.5343585 0 75.099998
-0.67281032 4.5343556 0 75.099998
-0.64532763 4.5343084 0 75.099998
-0.61918116 4.5318971 0 75.099998
-0.59334141 4.5313182 0 101.1
-0.56589776 4.5368428 0 75.099998
-0.55038339 4.6293974 0 24.1
-3.2829733 -4.3693328 -1.9891891 68.099998
-3.3232474 -4.3718758 -1.9987657 70.099998
-3.3617401 -4.3684621 -2.0062902 68.099998
-3.4030111 -4.3697863 -2.0158668 68.099998
-3.4424822 -4.3699045 -2.0247593 70.099998
-3.4855201 -4.3693628 -2.0343359 70.099998
-3.5216706 -4.3644543 -2.0411763 63.099998
-3.5700955 -4.3711357 -2.054173 66.099998
-3.611973 -4.3707829 -2.0637496 68.099998
-3.65517 -4.3715343 -2.0740101 66.099998
-3.6972809 -4.3704972 -2.0835867 66.099998
-3.7407224 -4.3705473 -2.0938473 66.099998
-3.7801273 -4.3638983 -2.1013718 63.099998
-3.8274949 -4.367496 -2.1136844 61.099998
-3.8717725 -4.3685551 -2.124629 61.099998
-3.9151959 -4.3650894 -2.1342056 61.099998
-3.9592156 -4.3633447 -2.1444664 58.099998
-4.0058861 -4.3640056 -2.156095 56.099998
-4.0514159 -4.362896 -2.1670396 56.099998
-4.0970654 -4.3614058 -2.1779842 58.099998
-4.1500669 -4.3656216 -2.1923492 60.099998
-4.1907744 -4.3579025 -2.2005577 54.099998
-4.5001006 -4.3654718 -2.2819583 57.099998
-4.5522981 -4.3654971 -2.2956393 62.099998
-4.5569072 -4.3198109 -2.2853787 29.1
-4.4713626 -4.1886206 -2.2299714 39.099998
-4.5167465 -4.1840177 -2.240916 45.099998
-4.5761523 -4.1888652 -2.2580171 49.099998
-4.6266804 -4.1863976 -2.2710137 51.099998
-4.677331 -4.183486 -2.2840104 47.099998
-4.7316465 -4.1817927 -2.2983754 49.099998
-4.6388855 -4.0538921 -2.2422841 11.1
-4.6457901 -4.0115538 -2.2340755 21.1
-4.6602407 -3.9774091 -2.2299714 33.099998
-4.6938725 -3.9610159 -2.2354436 21.1
-4.7432775 -3.9547558 -2.2477565 8.1000004
-5.1083808 -4.1588759 -2.3975613 63.099998
-5.1073565 -4.1093564 -2.3859324 67.099998
-5.1118169 -4.0646663 -2.3770399 70.099998
-5.1203651 -4.0235448 -2.3701997 73.099998
-5.158298 -4.0055137 -2.3770399 55.099998
-5.2252216 -4.0080047 -2.3968771 42.099998
-5.2864618 -4.0082822 -2.4146621 42.099998
-5.3560872 -4.0127001 -2.4358675 42.099998
-4.7472258 -3.4706285 -2.140362 7.0999999
-4.802783 -3.4677005 -2.156095 1.1
-5.8462095 -4.0194912 -2.582252 46.099998
-5.9181623 -4.0174508 -2.6034572 51.099998
-5.9904542 -4.0178342 -2.6253467 51.099998
-6.0652008 -4.0175142 -2.6479199 50.099998
-6.1487069 -4.0205364 -2.6739135 50.099998
-6.2215838 -4.0187645 -2.6958027 48.099998
-6.3025527 -4.0213575 -2.7211123 50.099998
-6.3858485 -4.0198269 -2.7464218 53.099998
-4.8496685 -2.7482817 -2.0288634 2.0999999
-4.8412833 -2.7057018 -2.0186028 6.0999999
-4.8403287 -2.6686993 -2.0117624 11.1
-4.8353477 -2.6308458 -2.0035541 16.1
-4.8276877 -2.5896685 -1.9939774 17.1
-4.8259106 -2.5530319 -1.9871371 15.1
-4.8276443 -2.5173979 -1.9816647 16.1
-4.8265872 -2.4826591 -1.9755083 17.1
-4.8244715 -2.445477 -1.968668 19.1
-4.8300705 -2.4134493 -1.9652478 21.1
-4.8270307 -2.3772867 -1.9584073 21.1
-4.8292165 -2.3428586 -1.953619 21.1
-4.8303576 -2.3101747 -1.9488307 19.1
-4.8333826 -2.2775092 -1.9447266 21.1
-4.8348784 -2.2432504 -1.9399383 21.1
-4.8370767 -2.2115238 -1.9358341 23.1
-4.8384981 -2.1765375 -1.9310458 26.1
-4.8402691 -2.144912 -1.9269415 25.1
-4.8456521 -2.1139927 -1.9242053 22.1
-4.8494763 -2.0814946 -1.9207851 22.1
-4.8544593 -2.0506039 -1.918049 23.1
-4.8592477 -2.0197251 -1.9153128 25.1
-4.8673205 -1.9902818 -1.9139447 26.1
-4.8699846 -1.9587088 -1.9105245 24.1
-4.8762789 -1.9277025 -1.9084724 26.1
-4.8834658 -1.899076 -1.9071044 26.1
-4.8893824 -1.8680514 -1.9050522 26.1
-4.9035792 -1.841181 -1.9064202 24.1
-4.9123392 -1.8122575 -1.9057362 18.1
-4.968636 -1.800583 -1.9235213 14.1
-4.8314724 -1.5633173 -1.8482769 7.0999999
-4.7887106 -1.5181487 -1.8284397 14.1
-4.7737842 -1.4841267 -1.8195472 20.1
-4.7748079 -1.4552501 -1.816811 21.1
-4.7782049 -1.4244448 -1.8147589 25.1
-4.7773094 -1.3942682 -1.8113387 29.1
-4.7782702 -1.3638314 -1.8086026 26.1
-4.7824254 -1.3352772 -1.8072344 17.1
-4.7773457 -1.3042456 -1.8024461 7.0999999
-4.6447444 -1.210731 -1.7470388 0.1
-4.7792845 1.792608 -1.8578534 21.1
-4.7779779 1.8226217 -1.8612736 21.1
-4.7758384 1.8543437 -1.8646939 21.1
-4.7755671 1.8859615 -1.868798 21.1
-4.7681131 1.9148362 -1.8701662 21.1
-4.7671056 1.9473611 -1.8742704 21.1
-4.7665701 1.9782777 -1.8783746 21.1
-4.7706819 2.0122719 -1.884531 15.1
-4.7742023 2.0472121 -1.8906873 7.0999999
-4.9942074 2.2791502 -1.9980817 12.1
-4.9209166 2.2810824 -1.9741403 22.1
-4.8991942 2.3053858 -1.9707201 21.1
-4.8892264 2.3351846 -1.9720881 21.1
-4.8841519 2.3674045 -1.9755083 21.1
-4.8738084 2.3971546 -1.9768764 20.1
-4.8712683 2.4319103 -1.9816647 19.1
-4.8647466 2.4616246 -1.9844009 19.1
-4.8563056 2.4947307 -1.9871371 20.1
-4.8501902 2.5270014 -1.9905572 20.1
-4.8521724 2.5636742 -1.9973977 21.1
-4.8472662 2.5969031 -2.0015018 19.1
-4.8400269 2.6301084 -2.0049222 19.1
-4.84126 2.6670094 -2.0117624 19.1
-4.834023 2.6994302 -2.0151827 18.1
-4.8347511 2.7364845 -2.0220232 17.1
-4.8368425 2.7745719 -2.0295475 21.1
-4.8370299 2.8118291 -2.0363879 21.1
-4.8299742 2.8462076 -2.0404921 21.1
-4.8301406 2.8827705 -2.0473325 20.1
-4.8306379 2.9220824 -2.054857 17.1
-4.8281498 2.958694 -2.0610135 18.1
-4.8333836 3.0003295 -2.07059 14.1
-4.8314028 3.038965 -2.0774302 8.1000004
-4.8360105 3.0808783 -2.0870068 7.0999999
-4.8387156 3.1219263 -2.0958993 6.0999999
-4.8411074 3.1631072 -2.1047919 5.0999999
-4.8494544 3.2085667 -2.1164207 3.0999999
-6.2343464 4.4996614 -2.7984087 55.099998
-6.1605506 4.4989419 -2.7765195 57.099998
-4.9701619 3.6750422 -2.2498085 11.1
-4.9519224 3.7058594 -2.2511766 5.0999999
-5.8575735 4.4898033 -2.6862261 55.099998
-5.797462 4.4969726 -2.6704934 52.099998
-5.7271152 4.4954762 -2.649972 63.099998
-5.5503187 4.4070201 -2.5795159 34.099998
-5.4705658 4.398448 -2.5548904 46.099998
-5.4057794 4.3978596 -2.5364213 55.099998
-5.3498888 4.4038386 -2.5220566 72.099998
-5.2998862 4.4141316 -2.510428 82.099998
-5.2592297 4.4333911 -2.5035875 85.099998
-5.2221684 4.4538517 -2.4981151 87.099998
-5.1850462 4.4740329 -2.4926429 85.099998
-5.152113 4.4976425 -2.4892225 68.099998
-4.7753658 4.2174635 -2.3188965 20.1
-4.6921954 4.1894159 -2.2894828 21.1
-4.5835328 4.1444468 -2.2491245 18.1
-4.488193 4.104033 -2.2135544 14.1
-4.4844513 4.1497407 -2.223815 18.1
-4.4467559 4.1626568 -2.2169745 7.0999999
-4.4008732 4.1675229 -2.2060299 6.0999999
-4.4439116 4.2585812 -2.240232 5.0999999
-4.5271101 4.4909091 -2.3209486 49.099998
-4.4746375 4.490284 -2.3072679 57.099998
-4.4236417 4.4905434 -2.2942712 51.099998
-4.3727922 4.4903646 -2.2812743 54.099998
-4.3194857 4.4870424 -2.2669096 57.099998
-4.2966695 4.5166802 -2.2689617 27.1
-4.033227 4.3387499 -2.156095 1.1
-4.0006723 4.404397 -2.1656716 1.1
-3.9789581 4.5371323 -2.1964533 20.1
-3.9675324 4.5770154 -2.2046618 29.1
-3.9716752 4.6354699 -2.2217629 4.0999999
0.5156191 -4.2859325 0.10022421 103.1
0.49092549 -4.2888308 0.10022421 103.1
0.46460417 -4.2837176 0.10003852 103.1
0.43992418 -4.2863221 0.10003852 103.1
0.41484419 -4.2848048 0.099945679 103.1
0.38961509 -4.2811494 0.099806413 103.1
0.36495113 -4.2833223 0.099806413 103.1
0.3395271 -4.2854123 0.099806413 103.1
0.28871968 -4.2791152 0.099574305 103.1
0.26469275 -4.2786651 0.099527888 103.1
0.24004516 -4.2801189 0.099527888 103.1
0.214342 -4.2754769 0.099388622 103.1
0.19046001 -4.2766075 0.099388622 72.099998
0.16723782 -4.3336058 0.10068843 103.1
0.1422098 -4.3324986 0.100642 103.1
0.11801048 -4.3332253 0.100642 103.1
0.091580495 -4.3358641 0.10068843 103.1
0.067425273 -4.3403068 0.10078127 103.1
0.041629951 -4.3366313 0.10068843 103.1
0.016652197 -4.3367991 0.10068843 103.1
-0.0083299521 -4.3388228 0.10073484 103.1
-0.033273436 -4.3327045 0.10059559 103.1
-0.058254205 -4.3344402 0.100642 103.1
-0.083974116 -4.3340182 0.100642 103.1
-0.10893474 -4.3334627 0.100642 104.1
-0.13307412 -4.3307881 0.10059559 103.1
-0.15899085 -4.335917 0.10073484 103.1
-0.18379161 -4.330934 0.100642 103.1
-0.20788118 -4.3278427 0.10059559 103.1
-0.23377487 -4.3305259 0.10068843 103.1
-0.25946847 -4.3290625 0.10068843 103.1
-0.28452876 -4.3294916 0.10073484 103.1
-0.30931738 -4.3257866 0.10068843 103.1
-0.33559927 -4.3318486 0.10087411 103.1
-0.35995308 -4.3318996 0.10092054 103.1
-0.38507396 -4.3317461 0.10096695 103.1
-0.410961 -4.3313751 0.10101338 103.1
-0.43494546 -4.327023 0.10096695 103.1
-0.45973846 -4.3304911 0.10110622 104.1
-0.48640639 -4.3295889 0.10115264 103.1
-0.51203883 -4.3326726 0.10129191 103.1
-0.53724736 -4.3255897 0.10119906 103.1
-0.56266767 -4.3263888 0.10129191 103.1
-0.58811498 -4.3270388 0.10138475 103.1
-0.61330771 -4.3255596 0.10143117 103.1
-0.63558209 -4.3041534 0.10101338 65.099998
-1.4553181 4.5601144 0.11113328 102.1
-1.4272389 4.562696 0.11099402 102.1
-1.3980066 4.5612822 0.11076191 102.1
-1.3694129 4.5615983 0.11057623 102.1
-1.3400657 4.5619702 0.11039054 103.1
-1.3104538 4.5580831 0.11011201 102.1
-1.2836381 4.5636306 0.11006559 103.1
-1.2544147 4.5634556 0.1098799 103.1
-1.2247547 4.5549431 0.10950853 102.1
-1.1956729 4.5543952 0.10932284 102.1
-1.1684285 4.5573325 0.10923 102.1
-1.140043 4.5521498 0.10895147 102.1
-1.1134844 4.5607772 0.10899789 101.1
-1.0839566 4.5534987 0.10867294 102.1
-1.0559052 4.5518756 0.10848726 102.1
-0.93730247 4.15238 0.098831564 31.1
-0.9158141 4.1653614 0.099017248 29.1
-0.93745166 4.3877645 0.10417005 25.1
-0.91727817 4.5491929 0.10774451 104.1
-0.88911605 4.5486689 0.10760524 102.1
-0.86257994 4.5476704 0.10746597 102.1
-0.83557844 4.5527091 0.10746597 102.1
-0.80829424 4.5515399 0.10732672 102.1
-0.77462417 4.5127659 0.10630544 82.099998
-0.701545 4.2331047 0.09962073 25.1
-0.67620593 4.2311516 0.099481463 29.1
-0.65000021 4.2231193 0.099202938 37.099998
-0.62595892 4.2287707 0.099249355 35.099998
-0.60141605 4.2363701 0.099342197 28.1
-0.57855636 4.2456064 0.099481463 21.1
-0.56737036 4.5616121 0.10672323 105.1
-0.5387345 4.5449486 0.10625902 102.1
-0.51197845 4.5500526 0.10630544 103.1
-0.48570845 4.5448885 0.10611975 103.1
-0.45852947 4.545701 0.10607333 103.1
-0.43215144 4.5462761 0.10602691 103.1
-0.40631524 4.5526729 0.10611975 103.1
-0.38078541 4.572937 0.10653754 46.099998
-0.11222085 4.4333849 0.10296308 112.1
-0.086958237 4.4479513 0.10328803 112.1
-0.061311007 4.4463792 0.10324161 101.1
-2.9321694 -4.3553138 -1.7740884 77.099998
-2.9703183 -4.3592248 -1.7824113 80.099998
-3.0079722 -4.358676 -1.789454 80.099998
-3.0457237 -4.3578334 -1.7964965 78.099998
-3.0849991 -4.3603268 -1.8048196 82.099998
-3.1203332 -4.3584356 -1.811222 80.099998
-3.1602476 -4.3576994 -1.8189048 80.099998
-3.1968663 -4.3567853 -1.8259473 80.099998
-3.2354627 -4.3565545 -1.8336301 80.099998
-3.2771997 -4.35848 -1.8425934 80.099998
-3.3152568 -4.3582048 -1.8502762 78.099998
-3.3560894 -4.3579707 -1.8585992 80.099998
-3.3951101 -4.356503 -1.866282 82.099998
-3.4358108 -4.358305 -1.8752453 80.099998
-3.4812834 -4.3609285 -1.8854891 80.099998
-3.5186789 -4.3576331 -1.8925316 80.099998
-3.5612626 -4.3572154 -1.9014949 80.099998
-3.6032043 -4.3570738 -1.9104582 80.099998
-3.6440461 -4.3551397 -1.9187813 80.099998
-3.687433 -4.3557715 -1.9283848 88.099998
-3.7297149 -4.3546085 -1.937348 82.099998
-3.775347 -4.3553066 -1.9475918 82.099998
-3.8203578 -4.3562832 -1.9578356 86.099998
-3.8622293 -4.3547239 -1.9667988 86.099998
-3.9095185 -4.3557 -1.9776827 84.099998
-3.9536464 -4.3541517 -1.9872862 82.099998
-3.9978855 -4.3522391 -1.9968898 84.099998
-4.042233 -4.3499608 -2.0064933 82.099998
-4.0918775 -4.3528376 -2.0186577 78.099998
-4.1267772 -4.338089 -2.0231395 74.099998
-4.0242529 -4.1818175 -1.9610367 50.099998
-4.0635386 -4.1727958 -1.9680792 67.099998
-4.1107106 -4.1743364 -1.9796034 61.099998
-4.4017444 -4.169805 -2.0487487 64.099998
-4.4540758 -4.1695089 -2.0615535 70.099998
-4.5037122 -4.1690235 -2.0737178 67.099998
-4.5577316 -4.1690807 -2.0871627 70.099998
-4.6111822 -4.1694474 -2.1006076 70.099998
-4.6633739 -4.1680732 -2.1134124 70.099998
-4.7192698 -4.1679211 -2.1274974 70.099998
-4.8272171 -4.1652718 -2.1543872 65.099998
-4.7228208 -4.0279713 -2.0974066 24.1
-4.7322073 -3.9905381 -2.0916443 29.1
-4.7528925 -3.9599609 -2.090364 29.1
-4.787323 -3.9421563 -2.0954859 20.1
-4.8522248 -3.6325705 -2.0481086 16.1
-4.9041657 -3.6262431 -2.0609131 13.1
-4.9219098 -3.5957017 -2.0596328 21.1
-4.8279176 -3.483285 -2.011615 31.1
-4.8380399 -3.4496665 -2.0077736 35.099998
-4.8475804 -3.4132605 -2.0032921 5.0999999
-4.8422709 -3.3679733 -1.9930484 8.1000004
-4.8350396 -3.3217885 -1.9821644 17.1
-4.8342819 -3.279211 -1.9738413 21.1
-4.8320594 -3.238447 -1.9655184 20.1
-4.8285112 -3.1959219 -1.956555 21.1
-4.8251843 -3.1527033 -1.9475918 27.1
-4.8299813 -3.1174853 -1.9424698 27.1
-4.8313408 -3.0802748 -1.9360676 28.1
-4.8356318 -3.0416253 -1.9303055 26.1
-4.8380589 -3.0055718 -1.9245434 25.1
-4.8450198 -2.9690318 -1.9200617 25.1
-4.8469367 -2.9330974 -1.9142996 26.1
-4.8479881 -2.8945704 -1.9078972 25.1
-4.854785 -2.8608284 -1.9040558 25.1
-4.8613539 -2.8271043 -1.9002144 24.1
-4.8676958 -2.7933996 -1.896373 23.1
-4.868865 -2.7569151 -1.8906109 22.1
-4.8801761 -2.725203 -1.8886902 21.1
-4.8908124 -2.6943073 -1.8867695 22.1
-4.9024544 -2.6651402 -1.8854891 21.1
-4.9231935 -2.6386869 -1.8874098 15.1
-4.772563 -2.4527643 -1.8131427 7.0999999
-4.7701306 -2.4158394 -1.8067403 16.1
-4.772099 -2.3824012 -1.8022586 24.1
-4.7738409 -2.3490207 -1.7977771 22.1
-4.7825809 -2.3181717 -1.7958564 21.1
-4.7817764 -2.2848895 -1.7907344 15.1
-4.769403 2.8487787 -1.877166 21.1
-4.7670016 2.8858619 -1.8829281 17.1
-4.7680688 2.9241662 -1.8899707 18.1
-4.7736802 2.9655776 -1.898934 5.0999999
-4.9233518 3.178968 -1.9802437 18.1
-4.9017892 3.2051978 -1.9789633 24.1
-4.8864069 3.2354689 -1.9802437 24.1
-4.8797102 3.2728515 -1.9853655 23.1
-4.8707609 3.3064389 -1.9892069 23.1
-4.8625674 3.3419499 -1.9936886 24.1
-4.8162131 3.3523443 -1.9828047 24.1
-4.8463888 3.4149523 -2.0032921 24.1
-4.8405228 3.4527113 -2.0090542 24.1
-4.8337727 3.4913595 -2.0148163 25.1
-4.8310256 3.5305996 -2.0218589 19.1
-4.8313131 3.5749838 -2.0308223 23.1
-4.8303585 3.617516 -2.0391452 24.1
-4.8260536 3.6578665 -2.0461879 23.1
-4.8169332 3.6948273 -2.0513096 24.1
-4.7701278 3.7027581 -2.0404258 19.1
-4.8247142 3.7898626 -2.0730777 24.1
-4.827208 3.8356094 -2.0833213 20.1
-4.8287835 3.8852177 -2.0942054 15.1
-4.8401222 3.9404788 -2.1089308 9.1000004
-4.8436708 3.9899752 -2.120455 3.0999999
-5.2561049 4.4859653 -2.3349333 87.099998
-5.2144051 4.5025425 -2.3278906 67.099998
-5.1512856 4.5000896 -2.3112447 72.099998
-4.865468 4.3000631 -2.1940818 15.1
-4.6364207 4.1952109 -2.1127722 28.1
-4.7596927 4.3553457 -2.1799967 28.1
-4.7504468 4.398962 -2.1876795 13.1
-4.5619287 4.32306 -2.123656 23.1
-4.678421 4.4864445 -2.1902404 54.099998
-4.640264 4.501442 -2.1844783 67.099998
-4.5852938 4.4980969 -2.1703932 74.099998
-4.4993544 4.4664927 -2.1422229 45.099998
-4.1553521 4.1727943 -1.9898472 29.1
-4.0980191 4.1629014 -1.9738413 22.1
-4.0567961 4.1687822 -1.9655184 14.1
-4.0090737 4.1674995 -1.9539942 17.1
-3.9699128 4.1761103 -1.9469515 7.0999999
-4.0646858 4.3756542 -2.0180175 13.1
-4.0802345 4.4951396 -2.0513096 72.099998
-4.033246 4.4967046 -2.0410659 80.099998
-3.9846542 4.4943399 -2.0295417 80.099998
-3.9387219 4.4944153 -2.0192981 80.099998
-3.8954027 4.4969759 -2.0103347 78.099998
-3.8620436 4.5107012 -2.0064933 53.099998
0.10272703 4.5618844 0.2127931 31.1
0.12826551 4.5352559 0.21158193 51.099998
0.15790902 4.6142812 0.21530861 28.1
0.58843768 -4.2790356 0.20142674 104.1
0.56326103 -4.2783923 0.20124041 104.1
0.53736472 -4.2776947 0.20105408 104.1
0.51298946 -4.2766619 0.20086774 104.1
0.48789626 -4.2755756 0.2006814 104.1
0.43705359 -4.2730389 0.20030874 104.1
0.41186005 -4.2695193 0.20002924 104.1
0.3872627 -4.2718205 0.20002924 104.1
0.36349705 -4.2839336 0.20049508 81.099998
0.34105423 -4.3238564 0.20226525 103.1
0.31690007 -4.3256936 0.20226525 103.1
0.29020256 -4.3235621 0.20207891 103.1
0.26629615 -4.3291039 0.20226525 104.1
0.24124685 -4.3285708 0.20217209 104.1
0.21535783 -4.3259354 0.20198575 104.1
0.19101764 -4.3230791 0.20179941 104.1
0.16551344 -4.3281293 0.20198575 104.1
0.14071229 -4.3330045 0.20217209 104.1
0.1162954 -4.3257341 0.20179941 104.1
0.089868985 -4.326364 0.20179941 104.1
0.065704733 -4.3267984 0.20179941 103.1
0.040027987 -4.3271122 0.20179941 57.099998
0.015126008 -4.3332644 0.20207891 41.099998
-0.009859114 -4.3452663 0.20263791 51.099998
-0.16259047 -4.3922153 0.20496708 51.099998
-0.20902783 -4.3202457 0.20170625 104.1
-0.23509441 -4.3269086 0.20207891 105.1
-0.26076651 -4.3254375 0.20207891 105.1
-0.28554308 -4.3218703 0.20198575 104.1
-0.31043038 -4.3201542 0.20198575 105.1
-0.3365261 -4.3242111 0.20226525 104.1
-0.36067167 -4.3222642 0.20226525 105.1
-0.38591522 -4.3240952 0.20245159 104.1
-0.41194677 -4.3257065 0.20263791 105.1
-0.43630001 -4.325326 0.20273109 105.1
-0.45981547 -4.3168621 0.20245159 103.1
-1.2815386 4.5622754 0.22099179 103.1
-1.2523278 4.5620937 0.22061911 103.1
-1.2247565 4.5612988 0.22024645 103.1
-1.1966546 4.5646214 0.22006011 103.1
-1.1673715 4.5598254 0.21950111 103.1
-1.1404326 4.5604596 0.21922162 103.1
-1.0286543 4.2197099 0.20254475 28.1
-0.98585463 4.1478171 0.19881807 26.1
-1.0097306 4.359735 0.20869376 24.1
-0.98867315 4.3870888 0.2097186 26.1
-0.97307885 4.5623121 0.21754462 106.1
-0.94475847 4.5580597 0.21707878 103.1
-0.9165194 4.5536327 0.21661295 103.1
-0.88833392 4.5531087 0.21633345 103.1
-0.86177599 4.5521102 0.21605395 103.1
-0.83294839 4.547318 0.21558811 103.1
-0.80639541 4.5500731 0.21549495 103.1
-0.77983832 4.5526729 0.21540177 103.1
-0.75262618 4.5511756 0.21512227 103.1
-0.72577178 4.5514894 0.21493594 103.1
-0.69833225 4.5476952 0.21456327 103.1
-0.67212796 4.5516419 0.21456327 103.1
-0.64454609 4.5515938 0.21437694 103.1
-0.61830807 4.5491838 0.21409744 103.1
-0.55444866 4.2573824 0.20021558 23.1
-0.52548087 4.2368979 0.19909757 27.1
-0.50013161 4.2319183 0.19872491 33.099998
-0.47389674 4.224885 0.19825907 43.099998
-0.4507165 4.2314386 0.19844541 30.1
-0.42619827 4.2400022 0.19872491 24.1
-0.40572622 4.2841544 0.2006814 14.1
-0.35119826 4.5434942 0.2125136 104.1
-0.32473895 4.5414562 0.21232727 103.1
-0.29765317 4.5413098 0.21223409 104.1
-0.27216569 4.5409074 0.21214093 104.1
-0.24079938 4.4606504 0.20832109 65.099998
-0.18821566 4.4351835 0.20701675 112.1
-0.16240361 4.4501982 0.20766893 118.1
-0.13729978 4.443048 0.20729625 122.1
-0.064784423 4.8203254 0.22481163 6.0999999
0.098004296 4.601954 0.21465644 27.1
0.14995867 4.568572 0.21316577 26.1
-2.6128943 -4.350306 -1.5835022 84.099998
