# .PCD v0.7 - Point Cloud Data file format
VERSION 0.7
FIELDS x y z
SIZE 4 4 4
TYPE F F F
COUNT 1 1 1
WIDTH 461
HEIGHT 1
VIEWPOINT 0 0 0 1 0 0 0
POINTS 461
DATA ascii
-8.12465 1.8906653 -2.2351613
-8.0308142 1.9265456 -2.2129028
-7.89152 1.9514922 -2.178221
-7.7747393 1.9803112 -2.1497509
-7.6747646 2.0120051 -2.1259396
-6.2816381 4.7672253 -2.1129987
-6.2761359 4.8665156 -2.1280103
-6.2754126 4.9364896 -2.1393983
-6.2740164 5.0066891 -2.1507862
-7.2562304 2.1191211 -2.0255179
-7.1557593 2.1454694 -2.0017066
-6.6561818 3.3958852 -2.0022242
-6.4742475 3.7696149 -2.0074005
-6.4812894 3.8660085 -2.0221531
-6.4756303 3.9558449 -2.0332825
-6.4688816 4.0438476 -2.0441527
-6.4669352 4.1373682 -2.0570939
-6.4708767 4.2360806 -2.0723641
-6.3017111 4.2826385 -2.0415647
-6.4527078 4.3213425 -2.0809052
-6.2796922 4.6637111 -2.0959165
-8.0462255 2.1740518 -1.9242313
-7.0667448 2.1726644 -1.981001
-6.9633455 2.1928623 -1.9561543
-7.9332123 2.2030571 -1.9008365
-6.8632936 2.214138 -1.932343
-6.7779632 2.2389727 -1.9126728
-6.6425638 2.8813789 -1.9401076
-6.6401987 2.9633899 -1.9483898
-6.6480169 3.0493157 -1.9597778
-6.6523619 3.1360755 -1.9706483
-6.644371 3.2464728 -1.9815186
-6.6463342 3.3340418 -1.992389
-6.5545182 3.4601061 -1.9860048
-6.4824858 3.5667624 -1.982554
-6.4774446 3.6513422 -1.992389
-6.4668818 3.7051172 -1.9970478
-7.8168321 2.2281582 -1.8765417
-7.7038298 2.2542171 -1.8531468
-7.5885854 2.2795722 -1.829302
-6.649231 2.2731991 -1.8829086
-7.4886785 2.30668 -1.8090564
-6.5150795 2.3032722 -1.8515915
-6.4769421 2.3664188 -1.8477092
-6.4843168 2.4709704 -1.8593559
-6.4761238 2.5719416 -1.8671205
-6.4774866 2.6513295 -1.8754028
-6.4784288 2.7046728 -1.8810968
-8.9528561 2.2255602 -1.7932229
-8.8077707 2.2548981 -1.7672729
-8.677906 2.2863216 -1.7443758
-8.5366678 2.3129628 -1.719189
-7.3873158 2.3306293 -1.7883608
-7.2781496 2.3521812 -1.7658658
-7.185698 2.3778338 -1.7474198
-7.0710974 2.39481 -1.723575
-6.9864988 2.4192922 -1.7069286
-6.442945 3.5787363 -1.7015297
-6.4608636 3.6464546 -1.7127774
-6.4652843 3.7387977 -1.7242498
-6.4606175 3.8582668 -1.7372971
-6.4703021 3.9572437 -1.751019
-6.4679747 4.0479565 -1.7615917
-6.3049588 4.3543739 -1.7690151
-6.3106699 4.4567256 -1.7836368
-6.2992826 4.548202 -1.7937597
-9.898634 2.3217034 -1.6103364
-8.3992691 2.3387983 -1.6947654
-8.2812204 2.3667827 -1.6741581
-8.1552315 2.3924839 -1.6520243
-8.04391 2.4224732 -1.6329434
-7.9142504 2.4438164 -1.6100463
-6.8433571 2.450161 -1.6781349
-6.7113209 2.4825931 -1.6520406
-6.6085835 2.4958575 -1.6308951
-6.5328155 2.5194938 -1.6164982
-6.473362 2.54862 -1.6061505
-6.4823904 2.6309152 -1.6151485
-6.4694824 2.7308817 -1.6212223
-6.4729123 2.8387599 -1.6317949
-6.4642029 2.9159834 -1.6371938
-6.6212921 3.0412548 -1.682184
-6.5751867 3.0758455 -1.6758853
-6.5746655 3.1317301 -1.6812842
-6.4565477 3.1589036 -1.6594639
-6.4623609 3.2459905 -1.6695868
-6.4675045 3.3324771 -1.6797094
-6.4573259 3.4421463 -1.6893824
-9.7443562 2.3556075 -1.5878098
-9.5877485 2.3887167 -1.5649704
-9.4273329 2.4187739 -1.5415052
-9.2688828 2.4472139 -1.5183529
-7.7926078 2.4644783 -1.5886757
-7.6930342 2.4921982 -1.5718845
-7.5748229 2.5124686 -1.5512772
-7.4790173 2.5387843 -1.5352492
-7.3614082 2.554873 -1.5146418
-11.32188 2.3302269 -1.4192904
-9.1066885 2.4725258 -1.4945749
-8.9712381 2.5031269 -1.475177
-8.815362 2.5244346 -1.4523376
-8.6762304 2.5502629 -1.4323139
-8.5442886 2.5780458 -1.4135418
-7.2619843 2.5773106 -1.4978507
-7.1589189 2.5971465 -1.4802961
-7.0669794 2.6197653 -1.4650315
-6.9718652 2.6386209 -1.4490035
-6.8653741 2.6532581 -1.4306859
-6.7772856 2.6737437 -1.4161843
-6.6819639 2.6901972 -1.4001564
-6.440949 3.268424 -1.4039726
-6.4363174 3.3505349 -1.4104601
-6.4389172 3.4381161 -1.4188557
-6.4407501 3.5540733 -1.4299226
-6.432065 3.6658809 -1.4390814
-6.3008676 4.0419798 -1.4551094
-6.2868662 4.1265869 -1.4617877
-6.2883377 4.2536049 -1.4757168
-11.084693 2.443213 -1.3936979
-10.871878 2.476017 -1.3690802
-10.663018 2.5068793 -1.3449501
-10.479791 2.5392008 -1.3239886
-10.292324 2.5699809 -1.3025396
-8.4128542 2.6026046 -1.3947697
-8.2894897 2.6263967 -1.377249
-8.1638546 2.649447 -1.3594155
-8.0251846 2.6665125 -1.3393919
-7.9222136 2.693856 -1.3253127
-7.8029385 2.7126904 -1.3084179
-6.5536938 2.7185237 -1.3791674
-6.4459014 2.7520697 -1.3623762
-6.4436255 2.8313043 -1.3681005
-6.4466028 2.9399686 -1.3772593
-6.4389057 3.045085 -1.38451
-6.4442434 3.1584466 -1.3950045
-10.108791 2.5992582 -1.2815781
-9.9291983 2.6271157 -1.261104
-9.7420549 2.6505098 -1.239655
-9.5971365 2.6831801 -1.2235682
-9.441267 2.7090232 -1.206019
-7.7019148 2.7379854 -1.2946516
-7.576786 2.7532327 -1.2768182
-7.4740477 2.7751195 -1.2627389
-7.3589344 2.7895198 -1.2464699
-7.263751 2.8115909 -1.2336422
-7.1631103 2.8302929 -1.2198759
-7.0570703 2.8455122 -1.2051711
-9.2754993 2.7316871 -1.1872511
-9.1094017 2.7537603 -1.1684833
-8.9723959 2.7808528 -1.1533715
-8.8245993 2.801023 -1.1367972
-8.6915598 2.825736 -1.122173
-8.5548439 2.8474762 -1.1070611
-6.9529977 2.8601418 -1.1907791
-6.8545337 2.8757515 -1.1773257
-6.773046 2.8959374 -1.1666882
-6.6820402 2.91237 -1.1544863
-6.5857229 2.9252691 -1.1413459
-6.451684 2.946187 -1.1233559
-6.4217138 3.0410705 -1.1253896
-6.4158769 3.1486926 -1.1319598
-6.4138336 3.2588968 -1.1394687
-6.261939 3.6314235 -1.1465082
-6.267909 3.7535653 -1.1571457
-6.2712083 3.8754692 -1.1676269
-11.265131 2.0838015 -1.0022911
-11.283571 2.1687889 -1.0052544
-11.286133 2.2490473 -1.0068232
-11.264303 2.3265748 -1.0063002
-11.247787 2.4051571 -1.0063002
-11.248352 2.7337346 -1.0127497
-8.4163742 2.866807 -1.0917056
-8.2804365 2.883553 -1.0765938
-8.1591196 2.9053319 -1.0634319
-8.0341768 2.9242013 -1.0497825
-7.9168158 2.9442375 -1.0371081
-7.8038001 2.962827 -1.0249212
-7.6829782 2.9784882 -1.0117593
-7.5770898 2.9984524 -1.0005473
-11.322614 -0.055333171 -0.99061215
-11.31077 0.023689255 -0.98956633
-11.30686 0.14111021 -0.98930484
-11.291903 0.25822097 -0.98817182
-11.272667 0.45475209 -0.98703879
-10.956422 2.4229622 -0.9817223
-10.95851 2.5441308 -0.98424983
-11.082108 2.7754097 -0.99950206
-10.863747 2.8014657 -0.98154795
-10.664829 2.8297205 -0.96533698
-10.48912 2.8616295 -0.95121777
-10.286636 2.8836958 -0.93465817
-10.090614 2.9029694 -0.91862154
-9.9229679 2.9299002 -0.90519953
-7.4676199 3.0155983 -0.98884785
-7.3692966 3.0359004 -0.97861081
-7.2637372 3.0519023 -0.96739882
-7.1552029 3.0637679 -0.95569938
-7.0535884 3.0787053 -0.9449749
-6.8396654 3.0423551 -0.91913861
-6.8453803 3.1023216 -0.92279464
-9.7377682 2.9511359 -0.89020878
-9.5875463 2.978847 -0.87835556
-9.4094639 2.9938979 -0.86388773
-9.2481527 3.0138321 -0.85098869
-9.0964785 3.0348148 -0.83896118
-8.9506245 3.0557599 -0.82745659
-8.7979403 3.0706556 -0.81525481
-8.628047 3.0790982 -0.80148423
-6.2601261 3.3510883 -0.87185329
-6.2593641 3.4625363 -0.87831235
-6.2605691 3.5478315 -0.88355273
-8.065403 2.9419448 -0.75110817
-8.0689383 3.007225 -0.75337422
-8.2121525 3.1244254 -0.76871365
-11.243987 2.2467704 -0.60092145
-11.241718 2.3280478 -0.60165417
-11.241043 2.4509616 -0.60296255
-11.223594 2.5705462 -0.60343355
-11.230642 2.6548114 -0.60479432
-11.229776 2.7354481 -0.60573637
-6.2402287 2.9644325 -0.60442507
-11.235716 3.0716362 -0.61044657
-6.2330732 3.0684581 -0.60782415
-6.2344451 3.1506109 -0.61113608
-6.2387648 3.2339075 -0.61479664
-11.30455 -0.51926804 -0.59307104
-11.283951 -0.43940276 -0.59181499
-11.312695 -0.36144501 -0.59317571
-11.287792 -0.24436434 -0.59171033
-11.275799 -0.12792537 -0.59097761
-11.282409 -0.049229108 -0.59129161
-11.290467 0.029558441 -0.59171033
-11.269515 0.14652881 -0.59066361
-11.273441 0.26370469 -0.59097761
-11.275318 0.34252238 -0.59118694
-11.268051 0.46044767 -0.59102994
-11.261683 0.5783748 -0.59097761
-11.261358 0.65721416 -0.59118694
-11.260482 0.73607719 -0.59139633
-11.264037 0.85484886 -0.59202433
-11.263114 1.5288383 -0.59568787
-11.263214 1.6491661 -0.59657753
-11.246692 1.7652073 -0.59662992
-11.251832 1.8465914 -0.59757197
-11.250814 1.925158 -0.59819996
-11.251581 2.0468018 -0.59935141
-11.241369 2.1667812 -0.5999794
-11.08449 2.7821748 -0.59893268
-10.908165 2.8190122 -0.59045428
-10.870847 2.8904772 -0.58951223
-9.9870911 2.8788493 -0.5447126
-9.7254324 2.8771122 -0.53152394
-6.2162304 2.7482126 -0.35619852
-6.2101851 2.8491764 -0.35808262
-6.2187462 2.9582386 -0.36090875
-11.202917 2.4897816 -0.20031872
-11.206701 2.5728536 -0.20070267
-11.192358 2.6519499 -0.20077248
-11.185703 2.7309175 -0.20098191
-11.248231 0.035337478 -0.19633958
-11.253191 0.15223695 -0.19644429
-11.245071 0.26893228 -0.19633958
-11.234924 0.34718344 -0.19619995
-11.236223 0.42576033 -0.19626977
-11.241066 0.54390109 -0.19644429
-11.227479 0.85800815 -0.196549
-11.229901 0.97656435 -0.19675843
-11.224801 1.0551265 -0.19679333
-11.215369 1.1313057 -0.19675843
-11.221718 1.2508028 -0.19709003
-11.217007 1.3693269 -0.1972471
-11.209157 1.4478586 -0.197282
-11.20472 1.5268873 -0.19738671
-11.207831 1.6470413 -0.19773576
-11.214051 1.766101 -0.19815463
-11.207367 1.8453208 -0.19825934
-11.204402 1.9232551 -0.19843386
-11.204227 2.0442739 -0.19880036
-11.212714 2.1673477 -0.19934139
-11.201623 2.244405 -0.1994112
-11.193513 2.324178 -0.19955082
-11.196565 2.4064682 -0.19989987
-6.1960173 2.4394498 -0.11623302
-6.2016773 2.5169792 -0.11682641
-6.1987357 2.5663328 -0.11710565
-6.2009325 2.6181011 -0.1174896
-6.1884789 2.6626196 -0.11759432
-11.235109 -0.1627658 0.19613014
-11.229131 -0.045129213 0.19600797
-11.222056 0.07246989 0.19588581
-11.207933 0.34437388 0.19572873
-11.20478 0.4617835 0.19574618
-11.207275 0.54028457 0.19585091
-11.206923 0.65797669 0.19595562
-11.201482 0.77542597 0.19599052
-11.193802 0.85345548 0.19595562
-11.193549 0.93207937 0.19606033
-11.198133 1.0496726 0.19632211
-11.187689 1.1660035 0.19633958
-11.185239 1.2447428 0.19644429
-11.182234 1.3235046 0.196549
-11.185539 1.4428444 0.19686314
-11.17583 1.5607163 0.19696786
-11.172575 1.6398611 0.19710748
-11.180706 1.7588708 0.19756123
-11.175878 1.8762165 0.19780557
-11.170386 1.9555719 0.19794519
-11.16433 2.0349419 0.19808482
-11.16707 2.1555166 0.19852114
-6.2054968 2.1483126 0.11462741
-6.1945157 2.1438327 0.11441798
-11.172565 2.2771459 0.19902724
-6.1861582 2.2626181 0.11497645
-11.168135 2.3575671 0.19923668
-6.1908007 2.3616097 0.1156571
-6.2002106 2.4398282 0.11630283
-6.1729026 1.9503347 0.33927655
-6.1772637 2.0704806 0.34143978
-6.1631951 2.1849232 0.34269583
-11.179566 -0.15610634 0.58595335
-11.182381 -0.078069016 0.58605802
-11.214336 0.078292109 0.58773279
-11.196634 7.8878207e-15 0.58679074
-11.187582 0.15426528 0.58637208
-11.188229 0.23240642 0.58647674
-11.190104 0.34969777 0.58673841
-11.190886 0.46708047 0.58700007
-11.179373 0.54480672 0.58658141
-11.175297 0.62283957 0.58658141
-11.173075 0.74017358 0.58684307
-11.181707 0.8584224 0.58773279
-11.173451 0.93629712 0.58762813
-11.167038 1.0526464 0.58783746
-11.161529 1.1691849 0.58815145
-11.174929 1.2495193 0.58930284
-11.154033 1.3260893 0.58867484
-11.158279 1.4452786 0.58966923
-11.163374 1.5649363 0.59076828
-11.175888 1.6463255 0.59202433
-6.1707664 1.6500254 0.55884266
-11.164423 1.7223587 0.59202433
-6.1626272 1.7397895 0.56023717
-11.166557 1.841635 0.59312344
-6.1663666 1.8342175 0.56285179
-6.1726747 1.95377 0.56645423
-6.1538301 1.4677795 0.77679521
-6.1530857 1.5581019 0.77935445
-6.1412702 1.6467116 0.78069496
-11.165914 -0.45822957 0.97771311
-11.166025 -0.34206718 0.97736448
-11.177006 -0.22631857 0.97806174
-11.172311 -0.15015411 0.97753882
-11.161133 -0.072076455 0.97649294
-11.159215 0.044803157 0.9763186
-11.160222 0.15973265 0.97649294
-11.162819 0.23772602 0.97684157
-11.151685 0.35433847 0.97614431
-11.159373 0.47161859 0.9771902
-11.155809 0.54951358 0.9771902
-11.157669 0.62771755 0.97771311
-11.14644 0.74425375 0.97736448
-11.148035 0.86170912 0.97823608
-11.151674 0.9403525 0.97910762
-11.150168 1.05695 0.97989202
-11.139647 1.1727898 0.97997916
-6.1266575 1.1532357 0.98741436
-11.139108 1.2514198 0.98067641
-6.1217909 1.2399511 0.98929155
-11.14197 1.3305718 0.9817223
-6.1299415 1.3309654 0.99351525
-11.137236 1.448458 0.98259389
-6.1317611 1.4434848 0.99773902
-5.982295 1.0645319 1.1811076
-6.1304412 0.93865037 1.2055311
-6.1362767 1.0263441 1.2093475
-6.1251144 1.1562592 1.211637
-11.155997 -0.76249576 1.37298
-11.149429 -0.64483833 1.3712739
-11.149691 -0.52775639 1.3705426
-11.149137 -0.44974461 1.3700552
-11.148037 -0.3717663 1.3695676
-11.134336 -0.25658634 1.3674959
-11.141418 -0.14195943 1.3681053
-11.138168 -0.06415195 1.3676177
-11.136177 0.052457593 1.3673741
-11.125189 0.16699976 1.3661554
-11.13169 0.24483813 1.3671303
-11.133678 0.32266042 1.3676177
-11.127639 0.43913046 1.3673741
-11.116549 0.5553596 1.3666428
-11.124292 0.63363093 1.3681053
-11.12886 0.75091225 1.3695676
-11.118478 0.8672334 1.369324
-11.118087 0.94533777 1.3700552
-6.1054239 0.63632637 1.4171916
-6.1120152 0.70177972 1.420341
-6.0994587 0.76514399 1.4192162
-6.1026559 0.852256 1.4225905
-6.111434 0.94009376 1.4275393
-6.0805287 0.44546819 1.6336657
-6.0882425 0.55301905 1.6380658
-6.0771565 0.63661057 1.6372893
-11.108858 -1.5335774 1.7761569
-11.115376 -1.4554733 1.7755312
-11.117425 -1.3768673 1.7742797
-11.105646 -1.2574961 1.7702124
-11.108451 -1.1401093 1.768648
-11.112206 -1.0621545 1.7680223
-11.108792 -0.94555771 1.7658322
-11.10035 -0.82879478 1.7630165
-11.093909 -0.75241643 1.7611392
-11.100863 -0.67506856 1.7614521
-11.105306 -0.59755409 1.7614521
-11.093421 -0.51927155 1.7589492
-11.080985 -0.44118416 1.7564461
-11.095641 -0.36420301 1.7583234
-11.094786 -0.24984542 1.7576976
-11.088937 -0.13548367 1.7564461
-11.083687 -0.058034576 1.7555076
-11.09152 0.058075599 1.756759
-11.094352 0.1723472 1.7573848
-11.081029 0.24952874 1.7555076
-11.079018 0.32688221 1.7555076
-11.079853 0.44308633 1.7562897
-11.105905 -1.9223155 2.1908689
-11.093876 -1.8405582 2.1859078
-11.104516 -1.7627562 2.1855261
-11.1055 -1.645884 2.1822824
-11.099831 -1.526409 2.1778939
-11.094643 -1.4468501 2.1748409
-11.100576 -1.3688797 2.1740777
-11.102528 -1.2512486 2.171788
-11.091654 -1.1325169 2.1672087
-11.091472 -1.0543125 2.1656821
-11.095888 -0.93858743 2.1645372
-11.09727 -0.82272214 2.1630108
-11.086943 -0.74611235 2.1599579
-11.080123 -0.66798449 2.1576681
-11.082521 -0.55172062 2.1569049
-11.083836 -0.43548506 2.1561418
-11.074832 -0.35771504 2.153852
-11.073935 -0.24358153 2.1530886
-11.075924 -0.1295245 2.1530888
-11.080484 -0.052215941 2.153852
-11.0688 0.025114352 2.1515622
-11.066843 -2.0651064 2.5990844
-11.066339 -1.9473252 2.5941355
-11.070813 -1.8287911 2.5905364
-11.062137 -1.7481123 2.5855875
-11.054511 -1.6698642 2.5810883
-11.057812 -1.5521268 2.577939
-11.063867 -1.4349819 2.5756896
-11.054273 -1.3553356 2.5711906
-11.05185 -1.276788 2.5684912
-11.052917 -1.1597717 2.5657916
-11.060644 -1.043591 2.5648918
-11.05213 -0.96499234 2.5612926
-11.048784 -0.85014737 2.5583682
-11.029793 -0.65722233 2.550945
-11.037949 -0.54181767 2.5513949
-11.029454 -0.42563674 2.5482454
