# .PCD v0.7 - Point Cloud Data file format
VERSION 0.7
FIELDS x y z
SIZE 4 4 4
TYPE F F F
COUNT 1 1 1
WIDTH 696
HEIGHT 1
VIEWPOINT 0 0 0 1 0 0 0
POINTS 696
DATA ascii
1.3857993 5.1574683 -0.87739623
1.3928257 5.0635252 -0.86280537
1.3706665 4.8730364 -0.83167821
1.3741715 4.7797093 -0.81708741
1.372198 4.6713581 -0.79990262
1.3522284 4.5043559 -0.77266639
1.3544378 4.4191298 -0.75937247
1.3604245 4.3490987 -0.74867254
1.3704503 4.294188 -0.74056649
1.3779281 4.235795 -0.731812
1.3912283 4.1919556 -0.72565144
1.4079465 4.1572094 -0.72111207
1.4214901 4.1212955 -0.71624845
1.5401111 4.1500998 -0.72727263
1.5842092 4.1947021 -0.73667562
1.6069268 4.1818237 -0.73602712
1.6482466 4.214488 -0.74348468
1.6185179 4.0692229 -0.71949083
1.6212096 4.0086055 -0.71041209
1.6413748 3.9961243 -0.70976359
1.673141 3.8756766 -0.69355154
1.6961101 3.8656797 -0.69355154
1.7374146 3.8407953 -0.69257885
1.7568794 3.8232448 -0.69128186
1.7978823 3.7407348 -0.68187886
1.8261067 3.7424157 -0.68414855
1.8432528 3.7229929 -0.68252736
1.8726374 3.7281868 -0.68544555
1.9162384 3.7592077 -0.69322729
1.9507951 3.7747455 -0.69809091
2.0920863 3.9346421 -0.73213625
2.0669496 3.8339317 -0.71559995
2.0889971 3.8219633 -0.71559995
2.1317329 3.8457479 -0.72240901
2.1799068 3.7274761 -0.7094394
2.2521586 3.7511868 -0.71884239
2.2896554 3.7145147 -0.71689689
2.3252492 3.7226224 -0.72111207
2.3533881 3.7212536 -0.72338176
2.3890328 3.7313206 -0.72792113
1.3097562 5.1048622 -0.74067926
1.3026452 4.8446231 -0.70505095
1.2961549 4.7088704 -0.68640172
1.2932048 4.5945654 -0.67081434
1.2982906 4.5128107 -0.65995884
1.3086222 4.452054 -0.65216517
1.3196337 4.3929963 -0.6446498
1.3315573 4.3417726 -0.63824785
1.3447099 4.2962294 -0.63268089
1.3579849 4.2525663 -0.62739235
1.3901331 4.1837702 -0.61959863
1.4182081 4.1827025 -0.62071204
1.4227999 4.1204267 -0.61263996
1.4386218 4.0897441 -0.60929984
1.5046388 4.1249986 -0.6170935
1.5284008 4.114141 -0.61681521
1.6165757 4.1292577 -0.62321717
1.5773265 3.9616337 -0.59927934
1.687001 4.1031308 -0.62349552
1.6975123 4.0580335 -0.61820692
1.6820314 3.9549389 -0.60401124
1.7170138 3.9096127 -0.60011441
1.7367482 3.8357561 -0.59176403
1.7619622 3.8307805 -0.59259903
1.8167256 3.7765636 -0.58898056
1.9003804 3.7817738 -0.5948258
1.920089 3.7651372 -0.5939908
2.0006733 3.7094471 -0.59232074
2.0248554 3.7030759 -0.59315574
2.1136839 3.7101951 -0.60011441
2.1416068 3.7078769 -0.60178447
2.1759324 3.7177017 -0.60540301
2.2060399 3.7183504 -0.60762978
2.2359529 3.7212505 -0.6101349
2.2631464 3.7163746 -0.61152661
2.2938719 3.7184486 -0.61403173
2.3452921 3.7517946 -0.6218254
2.4181092 3.8206398 -0.63546437
2.4474206 3.7215936 -0.62600058
2.4760499 3.7168949 -0.62767071
2.5178072 3.7342086 -0.63295925
2.6263719 3.8472319 -0.65467024
1.269678 5.3254275 -0.64022267
1.2795382 5.2290406 -0.62953681
1.2830546 5.1156111 -0.61676019
1.285802 5.0042424 -0.60421592
1.2903427 4.9045415 -0.5930655
1.2963606 4.814548 -0.58307654
1.2985152 4.7110181 -0.57146144
1.3040721 4.6269817 -0.56216937
1.3125539 4.5564027 -0.55450344
1.3197057 4.4839754 -0.54660517
1.3319868 4.4285083 -0.54079765
1.3417271 4.3694916 -0.53452551
1.3520203 4.314302 -0.52871799
1.3617228 4.2591405 -0.52291048
1.3750255 4.2193613 -0.51896131
1.394399 4.1941624 -0.51687062
1.408506 4.1517053 -0.51268917
1.4277792 4.1325088 -0.51129538
1.4469404 4.1111002 -0.50966924
1.4646045 4.0837431 -0.50734627
1.4839844 4.0661693 -0.50618476
1.5046266 4.0479813 -0.50502324
1.5229965 4.0262427 -0.50339711
1.5425931 4.0081344 -0.50223565
1.5627282 3.9896619 -0.50107414
1.5812701 3.9695225 -0.49968031
1.6033608 3.958508 -0.499448
1.6202207 3.9387524 -0.49805421
1.64195 3.9232843 -0.49735731
1.6605356 3.9025044 -0.49596348
1.6806198 3.8874059 -0.49526659
1.7252871 3.867789 -0.49526659
1.7803617 3.869005 -0.49805421
1.812705 3.8802838 -0.5008418
1.8624501 3.8698857 -0.50223565
1.8845096 3.8569808 -0.50200331
1.9102221 3.8531818 -0.50293255
1.9591596 3.8953555 -0.50990158
1.950633 3.8217347 -0.50177103
1.9819895 3.8301876 -0.50432634
2.0372105 3.7740371 -0.50153869
2.0617745 3.7674689 -0.50223565
2.0879505 3.7621155 -0.50316483
2.096272 3.7278862 -0.5001449
2.1436958 3.7099986 -0.50107414
2.1700468 3.7061615 -0.50223565
2.2051816 3.715426 -0.50525552
2.2951281 3.7190323 -0.5110631
2.3245296 3.7171371 -0.51268917
2.3590679 3.725915 -0.5157091
2.3927045 3.7327499 -0.51849675
2.4241195 3.7313905 -0.52035517
2.4510293 3.7256646 -0.52151662
2.5967343 3.7543592 -0.53382862
2.6194541 3.7409682 -0.5340609
2.6657367 3.7593873 -0.53893924
1.1560779 5.240696 -0.50068754
1.1853293 5.2341576 -0.50068754
1.2168289 5.2248797 -0.50050175
1.2446035 5.2121916 -0.49994439
1.2679274 5.1737685 -0.49697185
1.2734487 5.0698118 -0.48768264
1.2743418 4.952467 -0.47709298
1.2825512 4.8680196 -0.46966162
1.2929412 4.7951808 -0.46334496
1.3065385 4.733676 -0.45814303
1.3299947 4.7126565 -0.45684254
1.3405584 4.6475182 -0.451269
1.3566086 4.6034274 -0.44773912
1.3741399 4.562881 -0.44458079
1.3916192 4.5263395 -0.44179404
1.4087234 4.489749 -0.43900728
1.4266667 4.4569058 -0.43659207
1.442889 4.4223642 -0.4339911
1.4609306 4.3891616 -0.43157592
1.478749 4.3537579 -0.42897496
1.4952304 4.3228474 -0.42674553
1.512162 4.291626 -0.42451614
1.5302002 4.2619605 -0.42247251
1.5430456 4.2234211 -0.41949996
1.5597471 4.1917939 -0.41727057
1.5775174 4.1659803 -0.41559851
1.5928946 4.1345267 -0.41336909
1.6079512 4.1009007 -0.41095391
1.6241679 4.0730743 -0.40909606
1.6401178 4.045198 -0.40723825
1.6528819 4.0141687 -0.40500882
1.6727555 3.9929767 -0.40389413
1.6893977 3.9664912 -0.40222207
1.7098423 3.9512126 -0.40166473
1.7268455 3.9264138 -0.40017846
1.7455003 3.9094348 -0.39943531
1.7663432 3.8956892 -0.39906374
1.7802658 3.8652432 -0.39702013
1.8024983 3.8549256 -0.39702013
1.835592 3.8657477 -0.39924952
1.8869981 3.8586586 -0.4007358
1.9402741 3.8544533 -0.40259364
1.9739836 3.864152 -0.40482304
1.9973658 3.8566036 -0.40519461
2.0593617 3.9208434 -0.41318333
2.0301528 3.810137 -0.40277943
2.0558498 3.8053892 -0.40352255
2.0939953 3.8231764 -0.40668088
2.1951296 3.7959535 -0.40909606
2.2159493 3.7815294 -0.4089103
2.2403843 3.7717373 -0.40928185
2.2562819 3.750634 -0.40835294
2.272279 3.7269773 -0.40723825
2.3010318 3.7256882 -0.40853873
2.3294384 3.7220962 -0.40965343
2.4357331 3.7464042 -0.416899
2.4627454 3.7406294 -0.4178279
2.6344757 3.9013629 -0.43919307
2.6490347 3.8746176 -0.43789259
2.6497731 3.8281858 -0.43436268
2.6649213 3.803076 -0.43324798
2.7219894 3.7894447 -0.43529159
1.2501656 5.8166404 -0.41602761
1.2500697 5.6573887 -0.40514559
1.2534013 5.525794 -0.39621678
1.2467966 5.3451099 -0.38380012
1.2748042 5.0714622 -0.36566344
1.30449 5.065968 -0.36580294
1.3331374 5.0564413 -0.36566344
1.356521 5.0274906 -0.3641288
1.3799568 4.9962749 -0.36245462
1.4238926 5.0420051 -0.36636099
1.4307775 4.9570451 -0.36078048
1.4385626 4.7737813 -0.34864286
1.4572339 4.7368131 -0.34655017
1.4737345 4.694078 -0.34403893
1.4916172 4.6570115 -0.34194624
1.5066441 4.6123095 -0.33929548
1.5238954 4.5730028 -0.33706328
1.5428095 4.5371637 -0.3351101
1.5583329 4.5001969 -0.33301741
1.5722798 4.4572802 -0.33050618
1.5872297 4.4159536 -0.32813445
1.6015884 4.3789139 -0.32604176
1.6177951 4.3431582 -0.32408857
1.6342968 4.3113813 -0.32241443
1.6476146 4.2721128 -0.3201822
1.6627314 4.2362599 -0.31822902
1.6804461 4.2099366 -0.31697342
1.6956621 4.1780038 -0.31529927
1.7083586 4.1447887 -0.31348559
1.7274734 4.1195564 -0.3123695
1.7424995 4.0872092 -0.31069532
1.754909 4.051475 -0.30874217
1.7740968 4.0300336 -0.30790508
1.7908788 4.0073118 -0.30692849
1.8065088 3.9805796 -0.30567285
1.8259217 3.9607303 -0.3049753
1.8444749 3.941113 -0.30427775
1.860978 3.9156826 -0.30316162
1.8819518 3.9034307 -0.30302212
1.9008954 3.8853581 -0.30246407
1.9196934 3.8671973 -0.30190602
1.9665989 3.8480382 -0.30218506
1.9999915 3.8600237 -0.30399871
2.0388951 3.8802311 -0.30650994
2.0844088 3.9103186 -0.30985826
2.1021528 3.8894727 -0.30916068
2.1261706 3.8262582 -0.3060914
2.1709986 3.8560483 -0.30943972
2.2226052 3.8403721 -0.31027681
2.2406499 3.8206232 -0.30971876
2.264302 3.8089747 -0.30985826
2.3764589 3.794282 -0.31306705
2.39975 3.7843201 -0.31334609
2.4154589 3.7624638 -0.3126485
2.4362211 3.7442939 -0.3123695
2.4676254 3.7451942 -0.3136251
2.5086348 3.7586963 -0.31599683
2.5921297 3.8372092 -0.32380956
2.6316152 3.800535 -0.32325149
2.7047489 3.8101747 -0.32673931
1.2035724 5.4424486 -0.25993553
1.2303435 5.2704153 -0.25238901
1.2578995 5.2556901 -0.25201634
1.2852527 5.2326117 -0.25127101
1.3085408 5.197999 -0.24996668
1.3314732 5.1632924 -0.24866234
1.3560894 5.1362219 -0.24773067
1.4256427 5.1546731 -0.24940768
1.4466095 5.1156173 -0.24791701
1.4716116 5.0918465 -0.24717167
1.4963881 5.0679579 -0.24642634
1.5189331 5.0341244 -0.24521516
1.5431974 5.0100179 -0.24446984
1.5648381 4.9781761 -0.24335183
1.5825031 4.9348373 -0.24167483
1.6108049 4.8309951 -0.23748232
1.6132585 4.7416282 -0.23356931
1.622056 4.6815753 -0.2310538
1.6383542 4.6420126 -0.22956313
1.6577585 4.6096492 -0.22844513
1.668373 4.5590434 -0.22639546
1.6842343 4.5191102 -0.22490479
1.697482 4.4757109 -0.22322778
1.709567 4.4304461 -0.22145762
1.723413 4.3886108 -0.21987379
1.7397693 4.3563476 -0.21875578
1.7505502 4.3110852 -0.21698561
1.7631867 4.2756934 -0.21568127
1.7769059 4.2353668 -0.2141906
1.7910342 4.1990209 -0.21288627
1.8096282 4.1758041 -0.21223409
1.8247129 4.1430516 -0.21111611
1.8404843 4.1163816 -0.2102776
1.8583807 4.092979 -0.20962542
1.8776157 4.0709944 -0.20906642
1.89256 4.0420194 -0.20813476
1.9087914 4.0144792 -0.20729625
1.925107 3.9911599 -0.20664409
1.9390923 3.959929 -0.20561926
1.9600897 3.9451168 -0.20543292
1.9782832 3.9248419 -0.20496708
1.9960799 3.9023616 -0.20440808
2.0114057 3.8787377 -0.20375592
2.034642 3.8688569 -0.20384908
2.0538027 3.8496644 -0.20347641
2.077842 3.8412859 -0.20366275
2.1018529 3.8327582 -0.20384908
2.13427 3.837678 -0.20478076
2.1880345 3.883136 -0.20785525
2.2182767 3.8313506 -0.20645775
2.2473836 3.8305728 -0.20710993
2.304795 3.8755515 -0.2102776
2.3377423 3.881444 -0.21130243
2.3669794 3.8777349 -0.21186143
2.3966291 3.8759322 -0.2125136
2.4270122 3.873493 -0.21316577
2.4368358 3.8413205 -0.21214093
2.5123007 3.8115513 -0.21288627
2.5337653 3.7949147 -0.2127931
2.5880284 3.8282564 -0.21549495
2.6111631 3.8149357 -0.21558811
2.6490226 3.8228226 -0.21689244
2.6916485 3.8369415 -0.21856944
2.7687497 3.8974497 -0.22294828
2.8657999 3.9852462 -0.22891097
1.1565038 6.4534249 -0.15221639
1.1503251 6.2065988 -0.14655295
1.1898088 5.5217443 -0.13114099
1.2159704 5.4894218 -0.13053751
1.2461667 5.4805951 -0.13049109
1.2732491 5.4456234 -0.12984118
1.2952538 5.4034286 -0.1290056
1.321564 5.3723483 -0.12844853
1.3446636 5.3336267 -0.1277058
1.3673615 5.2948184 -0.12696305
1.3927237 5.2675247 -0.12649883
1.4648972 5.2894177 -0.12742727
1.6777532 5.0259337 -0.12301721
1.7039106 5.0023427 -0.12269226
1.7265803 4.9776359 -0.12232089
1.7492255 4.9506416 -0.12190309
1.7745085 4.9288869 -0.12162457
1.7799995 4.8588214 -0.12013907
1.8060051 4.8406796 -0.11995339
1.8119336 4.6908598 -0.11675029
1.8243761 4.6409473 -0.11577544
1.834747 4.5895176 -0.11475417
1.8498567 4.5510898 -0.11405785
1.8645356 4.5169878 -0.11345436
1.8797064 4.476018 -0.11271162
1.896028 4.4408793 -0.11210813
1.9112302 4.4060392 -0.11150466
1.9228244 4.3616881 -0.11066907
1.9398037 4.3344555 -0.11025127
1.9523271 4.295907 -0.10955495
1.9643763 4.2552004 -0.10881221
1.9803669 4.2257109 -0.10834799
1.9968157 4.1958303 -0.10788377
2.0106561 4.1648059 -0.10737313
2.0230157 4.1276655 -0.10672323
2.0387433 4.0998325 -0.10630544
2.0506151 4.064815 -0.10570196
2.0655885 4.0347772 -0.10523774
2.0825641 4.0125299 -0.10495921
2.0991209 3.9880831 -0.10463426
2.1189826 3.9685016 -0.10444857
2.1370444 3.9474397 -0.10421646
2.1520483 3.9210432 -0.1038451
2.1733334 3.9047096 -0.10375225
2.1951075 3.8925107 -0.10375225
2.2171748 3.8776803 -0.10370583
2.2394717 3.864846 -0.10370583
2.297806 3.8607309 -0.10430931
2.3368797 3.8769488 -0.10509848
2.3900723 3.9124954 -0.1064447
2.4336097 3.9326696 -0.10737313
2.453717 3.9130771 -0.10723387
2.4808917 3.9077523 -0.10746597
2.5454106 3.8588524 -0.10732672
2.5804839 3.8619671 -0.10783735
2.6340554 3.8934104 -0.10913716
2.6677353 3.8946707 -0.10960137
2.7049348 3.9006009 -0.11020485
2.798584 3.9864175 -0.11308299
2.8824341 4.0544801 -0.11549691
1.1834754 6.3730454 0
1.1829417 6.1777625 0
1.1935986 6.0391769 0
1.2066478 5.9202843 0
1.2216381 5.8273249 0
1.23552 5.7241793 0
1.3128874 5.6063261 0
1.3385757 5.5755692 0
1.3630264 5.5325727 0
1.3875444 5.4996638 0
1.4116906 5.4625354 0
1.4359671 5.4272456 0
1.4609294 5.3957191 0
1.7344795 5.1898327 0
1.7564671 5.1507463 0
1.8573761 5.3486819 0
1.8087835 5.1135192 0
1.8377395 5.0989327 0
1.8593022 5.0698123 0
1.8774582 5.0268388 0
1.9092216 5.0234199 0
1.9345161 5.0030136 0
1.9583116 4.9765573 0
1.9616778 4.9020629 0
2.0048544 4.852119 0
2.0352318 4.8416252 0
2.019223 4.6505523 0
2.0314434 4.6037226 0
2.0481298 4.5722275 0
2.0644925 4.5385094 0
2.07461 4.4898672 0
2.0885444 4.4524946 0
2.1028881 4.4147439 0
2.1153295 4.3777189 0
2.1273007 4.3385267 0
2.1406724 4.3029242 0
2.1491995 4.2583847 0
2.1616673 4.2206349 0
2.1686165 4.1765461 0
2.1833172 4.1462903 0
2.2050562 4.1279688 0
2.2278423 4.1134415 0
2.2428336 4.084764 0
2.2631416 4.0643935 0
2.2808924 4.0429807 0
2.2959063 4.0137501 0
2.313664 3.9896746 0
2.331538 3.9676611 0
2.3560648 3.9554741 0
2.3770864 3.940541 0
2.4035578 3.9314849 0
2.4261613 3.9175763 0
2.4536183 3.9098866 0
2.4882872 3.9163792 0
2.5263507 3.9276521 0
2.6191051 4.0176988 0
2.6377945 3.9958711 0
2.8374438 4.0901585 0
1.3955946 6.6513324 0.15778698
1.3729769 6.3556399 0.15096301
1.3714168 6.1758585 0.14687791
1.376117 6.0374885 0.14376765
1.3901601 5.9316339 0.14144658
1.4003786 5.8285151 0.13917193
1.4181887 5.7521558 0.13754717
1.441009 5.7031832 0.13657232
1.4628118 5.6522036 0.13555104
1.4891965 5.6204915 0.13499399
1.5142181 5.5848045 0.13434407
1.5414509 5.5545273 0.13383344
1.566322 5.5205512 0.13322996
1.5919669 5.4903145 0.13271932
1.7005292 5.5037222 0.1337406
1.7261876 5.4747672 0.13327639
1.78943 5.4586325 0.13336922
1.7932557 5.3625865 0.13128026
1.8201691 5.3345013 0.13086246
1.8473091 5.3166976 0.13067678
1.8738977 5.2946601 0.13039824
1.8978225 5.2627573 0.12988761
1.9175428 5.2257967 0.1292377
1.9534186 5.2274365 0.12956266
1.9735445 5.1899343 0.12891275
1.9983535 5.1654282 0.1285878
2.0201807 5.1311531 0.12803075
2.0519297 5.1250014 0.12817001
2.0753827 5.0982833 0.12779863
2.0968256 5.0721974 0.12742727
2.1223445 5.0463924 0.12710232
2.1467505 5.0208402 0.12677737
2.1620896 4.9772162 0.12598819
2.1859341 4.9514942 0.12566324
2.2021062 4.9136643 0.12501334
2.2345114 4.9099989 0.12524545
2.2278149 4.6749101 0.12023191
2.2425768 4.6389928 0.11962844
2.2577329 4.6004744 0.11897853
2.2681503 4.5551767 0.11814294
2.2853334 4.5241909 0.11767872
2.300283 4.4874187 0.11707525
2.3151672 4.4549856 0.11656461
2.329601 4.4203515 0.11600755
2.3435357 4.3835268 0.11540407
2.3563571 4.3471045 0.11480059
2.371726 4.315938 0.11433637
2.3846421 4.2790823 0.11373289
2.4016223 4.2535095 0.11340794
2.419867 4.2270365 0.11308299
2.4381528 4.2026525 0.11280446
2.4542112 4.1747503 0.11243309
2.4707532 4.1463723 0.11206172
2.4949055 4.1342206 0.11210813
2.5141783 4.1108141 0.11187603
2.5304418 4.0843673 0.11155108
2.5493186 4.0608125 0.11131897
2.5762489 4.0532608 0.11150466
2.6085837 4.0539422 0.11192245
2.6518664 4.0664034 0.11271162
2.7149091 4.1111274 0.1143828
1.6138406 6.3778358 0.30679846
1.5969157 6.1615043 0.29682961
1.6000981 6.030551 0.2909601
1.6070609 5.9190493 0.28602225
1.618086 5.8227887 0.28182974
1.6357623 5.7576413 0.2791279
1.6538565 5.6963224 0.2766124
1.6764119 5.652226 0.27493539
1.7058672 5.6287947 0.27428323
1.7288111 5.5883389 0.27279255
1.7549546 5.5592375 0.2718609
1.8589898 5.5527139 0.27307206
1.8973951 5.5544887 0.27372423
1.9178858 5.5136142 0.27223355
1.9342639 5.4591646 0.27009073
1.9605196 5.4306784 0.26925221
1.9853085 5.4046416 0.26850688
2.0152452 5.3871517 0.26822737
2.041975 5.3642526 0.26766837
2.0685079 5.3412251 0.26710936
2.0943065 5.3139868 0.26636404
2.1226482 5.2962728 0.26608455
2.1463323 5.2673087 0.26524603
2.1717439 5.2482347 0.26487339
2.2022126 5.2311878 0.26468703
2.2277136 5.2051706 0.26403487
2.2568595 5.1904216 0.26394171
2.2795453 5.1586642 0.26301003
2.3107741 5.1513209 0.26328954
2.361254 5.0270267 0.25900385
2.4263067 5.0868578 0.2628237
2.4529388 5.0696306 0.26263738
2.4337761 4.8138814 0.25155053
2.4531796 4.781579 0.25061885
2.4697058 4.7483072 0.249594
2.4904885 4.7216344 0.24894184
2.5062103 4.6838727 0.24773067
2.5217137 4.6482878 0.24661267
2.5282259 4.5969253 0.24465616
2.5408628 4.5556698 0.24325867
2.5475924 4.5083604 0.24148849
2.5594029 4.4671612 0.240091
2.5690391 4.4247026 0.23860031
2.5762453 4.3788381 0.23692332
2.588882 4.341167 0.23571214
2.6017258 4.3078289 0.23468731
2.6115985 4.2667546 0.23328981
2.6287603 4.2397566 0.23263764
2.6528103 4.2223907 0.23254448
1.8533422 6.1115704 0.44658095
1.849573 5.9750051 0.4373731
1.859918 5.888154 0.43179259
1.8687128 5.7994862 0.42607254
1.8846453 5.7355552 0.42216617
1.9091367 5.6958952 0.42007348
1.9309831 5.6463709 0.41728324
1.9592074 5.6260772 0.41658565
1.983575 5.5921359 0.41491151
2.0221491 5.5952773 0.41602761
2.0616305 5.6063666 0.41770175
2.0983613 5.6033764 0.41839933
2.128468 5.5856047 0.41798079
2.1512282 5.5490699 0.41616711
2.1797259 5.5250711 0.41533005
2.204083 5.4939084 0.41393492
2.2319214 5.4718862 0.41323736
2.2569132 5.4486709 0.41240028
2.283957 5.420074 0.41128418
2.3168657 5.4082594 0.41142368
2.3455877 5.3893375 0.41100514
2.3994529 5.2626848 0.40444803
2.4531882 5.2180171 0.40319243
2.4780922 5.1907644 0.40221584
2.500957 5.1642737 0.40123925
2.6636517 5.2662807 0.41267928
2.7085209 5.2770061 0.414772
1.7067624 4.4766011 -1.3737766
1.7179176 4.4290557 -1.3621998
1.7300526 4.3830185 -1.3511744
2.0610545 6.2650471 0.61531615
2.0684204 6.1639752 0.60658431
2.0795887 6.0739818 0.59896719
2.0911911 5.9983401 0.59265053
2.1003823 5.9148874 0.58559072
2.11783 5.8536329 0.58076036
2.1642485 5.8790884 0.58447605
2.2297802 5.7457423 0.57500106
2.2484763 5.6935143 0.57109958
2.2693574 5.6509027 0.56812704
2.2988555 5.6303644 0.56738394
1.67752 4.7240648 -1.312349
1.6851178 4.6576262 -1.2966474
1.6589693 4.5065193 -1.2571402
1.6761739 4.4712319 -1.2500491
1.6281127 4.2680755 -1.1958534
1.6561679 4.2676463 -1.1983858
1.6857272 4.2685404 -1.2014248
1.7160524 4.2731242 -1.2054769
1.7486802 4.2828732 -1.2110485
1.7807196 4.2947965 -1.2171265
1.8212086 4.3177099 -1.22675
1.5969036 4.8484526 -1.2095139
1.6076734 4.7853918 -1.1961415
1.585283 4.5421004 -1.1398849
1.578172 4.4393759 -1.1163679
1.553457 4.2890387 -1.0808618
1.5686389 4.256557 -1.0748672
1.5637841 4.1670036 -1.0545781
1.6002549 4.1906533 -1.0628783
1.6116798 4.1487141 -1.0545781
1.6326929 4.1300282 -1.0522724
1.6462907 4.0952764 -1.0458168
1.6669053 4.0785208 -1.0439724
1.6837256 4.0568604 -1.0407445
1.7062051 4.0411205 -1.0393611
1.7240146 4.0166183 -1.0356722
1.7502315 4.0137572 -1.0375167
1.7755957 4.0068593 -1.0384389
1.8019382 4.005754 -1.0407445
1.8290226 4.0041604 -1.0430501
1.8543895 3.9967668 -1.0439724
1.89728 4.0282745 -1.0550392
1.5457355 4.9750156 -1.1073377
1.5235206 4.8056555 -1.0715768
1.5307082 4.7335138 -1.0574389
1.5167289 4.5094719 -1.0112824
1.4902747 4.3428407 -0.97593749
1.4777246 4.2291818 -0.95223552
1.4928753 4.1947975 -0.94641399
1.506405 4.1545997 -0.939345
1.517397 4.1130848 -0.93186021
1.5307699 4.0747066 -0.92520702
1.5479264 4.0493765 -0.92146462
1.5662601 4.0276313 -0.91855383
1.5843741 4.0037136 -0.91522723
1.6030256 3.9836326 -0.9127323
1.6244614 3.9707127 -0.9119007
1.6406674 3.9492192 -0.90898991
1.6670457 3.9445293 -0.91023737
1.7058682 3.970516 -0.91855383
1.7451425 3.9982769 -0.92728615
1.7545602 3.9556618 -0.91980129
1.7726095 3.9368818 -0.91772223
1.7757323 3.8839071 -0.90774244
1.8020443 3.8803985 -0.90940571
1.8277005 3.8770335 -0.91106904
1.8456069 3.8555322 -0.9085741
1.8679659 3.8469241 -0.90898991
1.8909562 3.8378565 -0.90940571
1.9316893 3.7538249 -0.89734685
1.9562436 3.7499156 -0.89901012
1.9814683 3.7455032 -0.90067345
2.0522444 3.7719109 -0.9127323
2.0852733 3.7805843 -0.91772223
1.4695963 5.1420226 -1.0075977
1.4721901 5.041029 -0.98945278
1.487489 4.8805866 -0.96130967
1.4379275 4.6223359 -0.91205925
1.4336065 4.5165648 -0.89280343
1.4305373 4.4184799 -0.87502879
1.4182429 4.2984343 -0.85281056
1.4305606 4.2508245 -0.84503418
1.4424589 4.2011108 -0.83688748
1.4568971 4.1649051 -0.83133292
1.4623915 4.1046052 -0.8209644
1.4799755 4.0794864 -0.81763166
1.4945951 4.0469265 -0.81281769
1.5116652 4.0195899 -0.80911463
1.5326838 4.0053096 -0.80800372
1.5493104 3.9799318 -0.80467099
1.5714839 3.969115 -0.80430073
1.589914 3.949059 -0.8020789
1.6111434 3.9361985 -0.80133826
1.6301534 3.921979 -0.80022734
1.6533155 3.9101377 -0.79985708
1.6763937 3.8981597 -0.79948676
1.6980307 3.8866386 -0.79911643
1.7211851 3.8785908 -0.79948676
1.7434955 3.8686132 -0.79948676
1.7665659 3.8602946 -0.79985708
1.7786723 3.8265738 -0.79504311
1.7906178 3.7949362 -0.79059947
1.8498341 3.7510924 -0.78800732
1.8766845 3.7509222 -0.79022914
1.9186176 3.7252262 -0.78948855
1.9625939 3.7066948 -0.79022914
2.1007364 3.8578279 -0.82762986
2.1048737 3.8129721 -0.82059407
2.1387672 3.7194302 -0.80837405
2.1720285 3.727428 -0.81281769
2.2004559 3.7267032 -0.81540984
2.2346437 3.7338173 -0.81985348
