# .PCD v0.7 - Point Cloud Data file format
VERSION 0.7
FIELDS x y z
SIZE 4 4 4
TYPE F F F
COUNT 1 1 1
WIDTH 909
HEIGHT 1
VIEWPOINT 0 0 0 1 0 0 0
POINTS 909
DATA ascii
1.2899898 -4.927659 -0.83686608
1.257677 -4.9197106 -0.83427215
1.2247382 -4.9158115 -0.83232671
1.1953986 -4.9149046 -0.83102977
1.164392 -4.9142303 -0.82973278
1.1351811 -4.9170094 -0.82908428
1.1081349 -4.9251981 -0.82940853
1.0793107 -4.9336147 -0.82973278
1.051246 -4.945724 -0.83070552
1.0251386 -4.9632931 -0.83265096
0.99963981 -4.9845953 -0.83524489
0.97656775 -5.0193281 -0.84010851
0.95626599 -5.07546 -0.84853876
-3.0937645 -5.6838031 -1.0631863
-3.0291948 -5.4896412 -1.0301137
-2.9740553 -5.3170862 -1.0009321
-2.9355245 -5.1779737 -0.97791094
-2.8953881 -5.0372686 -0.95456558
-2.8857412 -4.9562101 -0.94224441
-2.9291449 -4.9627929 -0.94678378
-2.9698346 -4.9661651 -0.95067471
-3.007592 -4.964169 -0.95359284
-3.0483558 -4.9647346 -0.95715952
-3.0852385 -4.9605017 -0.95975345
-3.1263809 -4.9626875 -0.96364433
-3.1685169 -4.9640107 -0.9675352
-3.2090449 -4.9661279 -0.97142613
-3.2481861 -4.9618583 -0.97434431
-3.2897954 -4.9628077 -0.97823519
-3.3315229 -4.9634409 -0.98212606
-3.3731232 -4.9615369 -0.98569274
-3.4173088 -4.9647865 -0.99023211
-3.4593868 -4.9644523 -0.99412298
-3.5024402 -4.9631863 -0.99801385
-3.5461614 -4.966033 -1.0025532
-3.5882881 -4.9624939 -1.00612
-3.6342943 -4.9656334 -1.0109835
1.2972071 -4.9587612 -0.72035998
1.2613904 -4.9414244 -0.71674144
1.2249659 -4.9240522 -0.71312296
1.1932395 -4.9134955 -0.71061784
1.1613256 -4.9089255 -0.70894778
1.1312537 -4.9078135 -0.70783436
1.1020895 -4.9063253 -0.70672101
1.0729556 -4.9127789 -0.70672101
1.0429616 -4.9151845 -0.7061643
1.0154349 -4.9249897 -0.70672101
0.98782986 -4.9346404 -0.70727772
0.96127993 -4.9499688 -0.70866942
0.93481767 -4.9711576 -0.71089619
0.91007334 -4.9978924 -0.71395802
0.88760734 -5.044167 -0.71980327
-2.9536464 -6.1702619 -0.96140778
-2.8967111 -5.9602451 -0.93134642
-2.8397613 -5.7610006 -0.90267676
-2.7976856 -5.5917234 -0.87873894
-2.7608769 -5.4372811 -0.85702795
-2.7259312 -5.2949929 -0.83698702
-2.690366 -5.1505737 -0.81666774
-2.6513841 -5.0054803 -0.79607016
-2.6926799 -4.9428287 -0.79105991
-2.7297208 -4.9428415 -0.79356503
-2.7668509 -4.9425912 -0.79607016
-2.8070006 -4.9472442 -0.79941028
-2.8471718 -4.9493847 -0.80247211
-2.8827472 -4.9470954 -0.80469888
-2.9241402 -4.9503651 -0.80803901
-2.9607403 -4.9470367 -0.81026578
-3.0015061 -4.9502244 -0.81360596
-3.0401604 -4.9475126 -0.81611109
-3.0811646 -4.950098 -0.81945121
-3.1201863 -4.9490232 -0.82223469
-3.1612275 -4.9487805 -0.82529646
-3.1995721 -4.9476786 -0.82807994
-3.242985 -4.9501414 -0.83169848
-3.2826214 -4.9501085 -0.83476025
-3.324326 -4.9508514 -0.83810043
-3.3647842 -4.9474139 -0.84088385
1.2805029 -5.0199528 -0.60584205
1.1662266 -4.9334855 -0.59283316
1.13378 -4.9226985 -0.59074247
1.1023537 -4.91151 -0.58865178
1.0714949 -4.9102015 -0.58772254
1.0406905 -4.9087005 -0.58679336
1.0115997 -4.9107218 -0.58632874
0.9829098 -4.9145188 -0.58609641
0.95420969 -4.9181485 -0.58586413
0.92610854 -4.9295812 -0.58656102
0.89912307 -4.9426508 -0.58749026
0.87287241 -4.9655075 -0.58958095
0.84745723 -4.9840136 -0.59120709
0.82484984 -5.0260563 -0.59562081
0.81888539 -5.1819453 -0.61350799
-2.7145581 -6.3122292 -0.80353051
-2.6641834 -6.0980749 -0.77820969
-2.6194921 -5.902874 -0.75521183
-2.5808053 -5.7265062 -0.73453701
-2.5509222 -5.5742679 -0.71688211
-2.5371809 -5.4559112 -0.70364094
-2.5014939 -5.3015275 -0.68552142
-2.4624879 -5.141912 -0.66670501
-2.4173868 -4.9717846 -0.64649481
-2.4736068 -4.9418325 -0.64626247
-2.5082865 -4.9376936 -0.64765632
-2.5440104 -4.9395018 -0.64974701
-2.5806372 -4.9384027 -0.65160543
-2.6174088 -4.9392548 -0.65369612
-2.6533351 -4.9380965 -0.65555453
-2.690196 -4.9362183 -0.65741295
-2.7281883 -4.9380298 -0.65973598
-2.7662902 -4.9395666 -0.66205901
-2.8035192 -4.9390998 -0.6641497
-2.8426874 -4.9395938 -0.66647273
-2.8792346 -4.9390855 -0.66856343
-2.92062 -4.9424353 -0.67135108
-2.9572012 -4.9391665 -0.67320943
-2.9979622 -4.9424338 -0.67599708
-3.0355606 -4.9380946 -0.67785549
-3.0755017 -4.9390783 -0.6804108
-3.1176739 -4.9431252 -0.68343073
1.0728377 -4.9246073 -0.47021896
1.0415342 -4.9211459 -0.46929005
1.0111678 -4.9173102 -0.46836114
0.98127007 -4.9152412 -0.46761799
0.952187 -4.9169016 -0.46724641
0.92225891 -4.918551 -0.46687487
0.89391494 -4.9237809 -0.46687487
0.8660574 -4.9368443 -0.46761799
0.83913773 -4.9455309 -0.46798956
0.81224883 -4.9601078 -0.46891847
0.78590226 -4.9845114 -0.47077632
0.76136398 -5.0165181 -0.47337729
0.73990864 -5.0780935 -0.47876501
-2.4583271 -6.3085361 -0.63166517
-2.4127731 -6.0846596 -0.61067158
-2.3740544 -5.8878222 -0.59227896
-2.330409 -5.6906095 -0.57370061
-2.3046205 -5.5310526 -0.55902368
-2.2760341 -5.3724256 -0.54434675
-2.2447383 -5.2147293 -0.52966982
-2.2180867 -5.0721731 -0.51647913
-2.1963363 -4.9446602 -0.50477475
-2.2280543 -4.9391894 -0.5055179
-2.2597818 -4.9335165 -0.50626105
-2.2974396 -4.9358687 -0.50793308
-2.3317738 -4.9373655 -0.50941938
-2.367058 -4.9382195 -0.51090562
-2.4032915 -4.9384108 -0.51239192
-2.4370046 -4.9374113 -0.51369238
-2.4742885 -4.9388866 -0.51536447
-2.5107727 -4.9383178 -0.51685071
-2.5447009 -4.9366083 -0.51815122
-2.5813336 -4.9355373 -0.51963747
-2.6162486 -4.9329028 -0.52093798
-2.6531048 -4.933537 -0.52261001
-2.6918697 -4.9351888 -0.52446783
-2.7279584 -4.9335442 -0.52595413
-2.7650907 -4.9333844 -0.52762616
-2.8042786 -4.9364233 -0.52966982
-2.844455 -4.9386773 -0.53171343
-2.8790178 -4.9347539 -0.53301394
1.1193982 -5.0037975 -0.35854828
1.0438499 -4.9406009 -0.35310727
1.0113652 -4.9269872 -0.35171214
0.9798519 -4.9170771 -0.35059604
0.95037955 -4.9167628 -0.3501775
0.91898429 -4.9105492 -0.34934041
0.88997507 -4.9118342 -0.3490614
0.85943598 -4.9091682 -0.34850335
0.83267087 -4.9178257 -0.34878236
0.80529779 -4.9284472 -0.3492009
0.77665788 -4.9370809 -0.34947994
0.75000173 -4.9533081 -0.350317
0.72317791 -4.9754405 -0.35157263
0.69781679 -5.0032353 -0.35324678
0.67541844 -5.0485826 -0.35617656
-2.1659501 -6.1815233 -0.45802101
-2.1311059 -5.9716449 -0.44337216
-2.1041393 -5.7905068 -0.43081599
-2.0879107 -5.6413293 -0.42063153
-2.0596344 -5.4708691 -0.40877295
-2.0320857 -5.3020601 -0.39705384
-2.0154817 -5.1694431 -0.3879855
-1.9990342 -5.0387034 -0.37905669
-2.0196395 -4.9292903 -0.37249956
-2.0535512 -4.9260683 -0.37319714
-2.088197 -4.9266543 -0.37417373
-2.1228511 -4.9292049 -0.37528983
-2.1576035 -4.931519 -0.37640592
-2.1940732 -4.9372425 -0.37780106
-2.2249353 -4.9299793 -0.3782196
-2.2599423 -4.9315929 -0.3793357
-2.2967632 -4.9321651 -0.3804518
-2.3302398 -4.9318881 -0.38142839
-2.3655059 -4.9305649 -0.38240498
-2.4025857 -4.9325843 -0.38366061
-2.4353988 -4.9298215 -0.38449767
-2.4735527 -4.9331174 -0.38589281
-2.5109262 -4.9343557 -0.38714844
-2.5457637 -4.9344397 -0.38826454
-2.5870285 -4.942225 -0.39007819
-2.6219988 -4.9395785 -0.39105478
-7.9336953 -4.4212809 -4.0437756
-7.9302087 -4.3596692 -4.0291333
-7.9318452 -4.2994733 -4.0169311
-7.9435863 -4.2468266 -4.0104232
-7.9477887 -4.1921663 -4.0006618
-7.9579353 -4.1373444 -3.9933403
-7.9539924 -4.0772729 -3.9795113
-7.9666309 -4.0242348 -3.9738171
-7.974957 -3.9709544 -3.9664958
-7.9829335 -3.9177117 -3.9591744
-7.9757586 -3.8573499 -3.9445319
-7.9886107 -3.8052387 -3.939651
-7.9872384 -3.7482979 -3.9282625
-8.0004025 -3.6983995 -3.9241951
-8.0039158 -3.6425343 -3.915247
1.0584294 -5.0139327 -0.23897299
0.94739747 -4.90593 -0.23301031
0.91496414 -4.8937912 -0.2321718
0.88462782 -4.8871846 -0.2316128
0.85423458 -4.8844762 -0.23124014
0.82527548 -4.8793216 -0.2307743
0.79748088 -4.8859658 -0.23086748
0.76847315 -4.8906121 -0.23086748
0.74029261 -4.8949571 -0.23086748
0.71238059 -4.9071722 -0.23124014
0.68548375 -4.9210873 -0.23170598
0.66010529 -4.940681 -0.2324513
0.63268942 -4.9664211 -0.23347615
0.60928708 -5.0055747 -0.23515315
0.61080182 -5.279006 -0.24782383
-1.9217173 -6.2856541 -0.30651897
-1.9007581 -6.0913963 -0.29757494
-1.876837 -5.8915563 -0.28835142
-1.8535624 -5.7080679 -0.27987325
-1.8355916 -5.5373454 -0.27204722
-1.8179092 -5.3831534 -0.26496655
-1.8001262 -5.2309117 -0.25797904
-1.7894733 -5.1013694 -0.25210953
-1.7737916 -4.9649267 -0.24586734
-1.8136808 -4.8951378 -0.24344499
-1.8466283 -4.8998876 -0.24419034
-1.879966 -4.9000349 -0.24474934
-1.9117886 -4.8984313 -0.24521516
-1.9459845 -4.8999977 -0.24586734
-1.9794105 -4.9016757 -0.24651951
-2.0096924 -4.9001365 -0.24698533
-2.0449736 -4.9006748 -0.24763751
-2.0787003 -4.8994884 -0.24819651
-2.1140027 -4.9039464 -0.24903502
-2.1470206 -4.9026694 -0.249594
-2.1809058 -4.9030004 -0.25024617
-2.2132211 -4.8994613 -0.25071201
-2.2505653 -4.9066076 -0.25173685
-2.2855599 -4.9036331 -0.25229585
-2.3205981 -4.9070463 -0.25313434
-2.3566024 -4.9098091 -0.25397286
-2.3900719 -4.9047184 -0.2544387
-2.4262795 -4.9092035 -0.25537035
-8.1092663 -5.422534 -4.0746913
-7.873313 -5.1974101 -3.9405642
-7.9835086 -5.2043839 -3.9806483
-7.9559355 -5.121357 -3.952127
-7.9612637 -5.0582209 -3.9397933
-7.979321 -5.0054188 -3.9343975
-7.9782071 -4.9409165 -3.9197514
-8.0018091 -4.8919959 -3.9174387
-8.0203714 -4.840107 -3.9128139
-8.0188236 -4.7744894 -3.8981676
-8.0223236 -4.7142005 -3.886605
-8.0376511 -4.5994811 -3.8681047
-8.0318689 -4.5349646 -3.8526878
-8.0521889 -4.4836316 -3.8496044
-8.0422935 -4.4176331 -3.8326459
-8.0943308 -4.383894 -3.8449793
-8.091773 -4.3224196 -3.8318748
-8.0771551 -4.1957459 -3.8018119
-8.0762396 -4.0760641 -3.7786865
-8.0880156 -4.0237269 -3.7732906
-8.0878582 -3.9657023 -3.7624989
0.8546012 -4.8966441 -0.11540407
0.82524341 -4.8895111 -0.11512554
0.79546136 -4.884316 -0.11489343
0.76522464 -4.8810487 -0.11470775
0.73680103 -4.8833981 -0.11466132
0.70752299 -4.8857055 -0.1146149
0.67964691 -4.8916798 -0.11466132
0.65310842 -4.9013453 -0.11480059
0.6246677 -4.9171448 -0.11507912
0.5988819 -4.9344511 -0.11540407
0.57188112 -4.9577808 -0.11586829
0.54658216 -4.9908061 -0.11656461
0.52545857 -5.0674567 -0.11828221
-1.6365359 -5.9576483 -0.14344271
-1.6216167 -5.7729526 -0.13921835
-1.6051776 -5.5905538 -0.1350404
-1.5904269 -5.4282832 -0.13132668
-1.5755018 -5.1468081 -0.12496692
-1.5586112 -4.9887867 -0.12134603
-1.5893906 -4.8887377 -0.1193499
-1.6223733 -4.8884258 -0.11958201
-1.6528519 -4.8887596 -0.11981412
-1.686192 -4.8942819 -0.12018549
-1.7178553 -4.891736 -0.12037118
-1.7500412 -4.8930569 -0.12064971
-1.7822992 -4.8941684 -0.12092824
-1.8147868 -4.8928795 -0.12116034
-1.8463199 -4.8938918 -0.12143888
-1.8796295 -4.8940487 -0.12171741
-1.9121515 -4.8943162 -0.12199593
-1.9455929 -4.894031 -0.12227447
-1.9797428 -4.8975739 -0.12264584
-2.0107682 -4.8978891 -0.12292437
-2.0452738 -4.8965845 -0.1232029
-2.0805471 -4.8990846 -0.12357427
-2.11269 -4.8961992 -0.12380638
-2.1488822 -4.9022627 -0.1242706
-2.1819608 -4.9007645 -0.12454912
-7.3733397 -5.6373439 -3.6242955
-7.2391992 -5.469007 -3.5428181
-7.0371041 -5.25103 -3.4286039
-7.0992327 -5.1730547 -3.430059
-7.1933155 -5.1765404 -3.460613
-7.285265 -5.1792822 -3.4904397
-7.3814363 -5.1819882 -3.5217211
-7.4723964 -5.1818542 -3.5508204
-7.5728197 -5.1871595 -3.5842843
-7.6689205 -5.1883464 -3.6155658
-7.7730293 -5.1937723 -3.6504848
-7.8721395 -5.1926908 -3.6824937
-7.9799676 -5.1981072 -3.7188678
-7.9847045 -5.1359344 -3.7072279
-8.0779533 -5.1284027 -3.7363272
0.79685742 -4.9036765 0
0.76496285 -4.8905349 0
0.73499674 -4.8829932 0
0.70543581 -4.8833098 0
0.67620021 -4.8793678 0
0.64920175 -4.8850508 0
0.61960012 -4.8909097 0
0.59275514 -4.8982649 0
0.56482047 -4.9116306 0
0.53824961 -4.9226608 0
0.51174176 -4.943584 0
0.48637193 -4.9782977 0
0.46084017 -5.0249124 0
-1.4085454 -6.2451262 0
-1.4052314 -6.0673971 0
-1.3934433 -5.8626781 0
-1.3528401 -5.5453663 0
-1.3739394 -5.3627963 0
-1.3702929 -5.2232461 0
-1.3680488 -5.0914073 0
-1.3639539 -4.9619498 0
-1.4033467 -4.884398 0
-1.4320039 -4.8844104 0
-1.4649639 -4.8829789 0
-1.4954064 -4.8821096 0
-1.5270809 -4.8848691 0
-1.5602977 -4.8890586 0
-1.5900537 -4.8878756 0
-1.6236639 -4.8894601 0
-1.6541508 -4.8897882 0
-1.6842418 -4.8858523 0
-1.7165202 -4.8852067 0
-1.7486715 -4.8865376 0
-1.7822644 -4.891418 0
-1.8147383 -4.890131 0
-1.8469656 -4.8930173 0
-1.8795556 -4.8913054 0
-1.912793 -4.8934383 0
-1.9454932 -4.8912935 0
-1.9773819 -4.8892779 0
-2.0098855 -4.8933077 0
-6.8379698 -6.0242405 -3.3169115
-6.6642084 -5.8033257 -3.2163575
-6.5180478 -5.6103654 -3.1301684
-6.3880177 -5.4327855 -3.0521877
-6.2882862 -5.2858567 -2.9899402
-6.2441783 -5.1272011 -2.9406891
-6.3197389 -5.1267614 -2.9618945
-6.3946176 -5.1267204 -2.9830997
-6.4735456 -5.1271906 -3.0056729
-6.5509119 -5.12919 -3.0282464
-6.6293969 -5.1293273 -3.0508196
-6.7045145 -5.1241345 -3.0713408
-6.8029046 -5.1375346 -3.1028068
-6.8905168 -5.1397753 -3.1288002
-6.9759827 -5.1412587 -3.1541097
-7.0592756 -5.1420527 -3.1787353
-7.1491647 -5.1428742 -3.2054129
-7.2399445 -5.1451607 -3.2327745
0.70639235 -4.8959703 0.11484701
0.6768114 -4.8900547 0.1146149
0.64922673 -4.8917761 0.11456848
0.61807793 -4.8857327 0.11433637
0.59030163 -4.8851385 0.11424353
0.56153047 -4.8905416 0.11428995
0.53400373 -4.8996577 0.11442921
0.50598019 -4.9046412 0.11447564
0.47907934 -4.9214044 0.11480059
0.45132214 -4.9400897 0.11517196
0.42524812 -4.9704981 0.11582186
0.39947453 -5.0087409 0.11665745
-1.1793256 -6.2235408 0.1470636
-1.1782284 -6.0221696 0.14246786
-1.1785108 -5.8447623 0.13842918
-1.1765585 -5.661479 0.13425124
-1.1755744 -5.5023036 0.13063034
-1.1767857 -5.3567863 0.12733442
-1.1781516 -5.215137 0.12413133
-1.1797042 -5.085557 0.12120677
-1.1788781 -4.9522462 0.11818936
-1.2212822 -4.8801489 0.11679672
-1.2532014 -4.8844361 0.11707525
-1.2813128 -4.8771372 0.11707525
-1.3128291 -4.8791018 0.11730736
-1.343562 -4.8810983 0.11753947
-1.3743613 -4.8829026 0.11777157
-1.4046731 -4.8825917 0.11795726
-1.4344488 -4.8864317 0.11823579
-1.4679989 -4.8868966 0.1184679
-1.4972934 -4.882184 0.11856074
-1.5283741 -4.8830199 0.11879285
-1.5603663 -4.8833876 0.11902495
-1.5913309 -4.886004 0.11930348
-1.6261942 -4.8913708 0.11967485
-1.6560529 -4.8897872 0.11986054
-1.6867975 -4.8877282 0.12004623
-1.7197529 -4.8889494 0.12032476
-1.75058 -4.8864927 0.12051044
-1.7841762 -4.8913565 0.12088182
-6.0740871 -5.8697767 -2.8541632
-5.9269438 -5.6619315 -2.7696521
-5.8143892 -5.488791 -2.7017875
-5.6713595 -5.2923307 -2.6211178
-5.5574031 -5.1282239 -2.5551739
-5.5746226 -5.0814161 -2.5487714
-5.647953 -5.0907969 -2.5692589
-5.7162652 -5.0912175 -2.5865452
-5.7853141 -5.0932665 -2.6044719
-5.8531451 -5.0934443 -2.6217582
-5.9269147 -5.0979509 -2.6416054
-5.9989319 -5.0982742 -2.6601722
-6.0702705 -5.0989804 -2.6787391
-6.1418142 -5.0990324 -2.6973057
-6.2106295 -5.096025 -2.714592
-6.2908044 -5.099649 -2.7363601
-6.3688698 -5.1024265 -2.7574878
-6.442122 -5.0986443 -2.7760546
-6.51825 -5.0999475 -2.7965419
-6.6059756 -5.1075201 -2.821511
0.8000378 -5.1323738 0.24223383
0.61586922 -4.881959 0.22946997
0.58787686 -4.8793721 0.22919047
0.55845749 -4.8788052 0.22900413
0.52970117 -4.8759823 0.22872463
0.50181323 -4.8809395 0.22881781
0.4740786 -4.8877258 0.22900413
0.44560927 -4.8964219 0.22928363
0.41841832 -4.9108505 0.22984263
0.39091775 -4.9231367 0.23030847
0.36446285 -4.9512086 0.23151964
0.3373678 -4.9871697 0.23310347
0.31381932 -5.0727787 0.23701648
0.33378479 -5.9701781 0.27884841
-0.93459183 -6.3061934 0.29729545
-0.94168812 -6.1111517 0.28835142
-0.94783223 -5.9241347 0.27978006
-0.95416486 -5.7449727 0.27158138
-0.95878881 -5.5739932 0.26375538
-0.96497595 -5.4228258 0.25686103
-0.97089976 -5.2796364 0.25033936
-0.97669756 -5.1444139 0.24419034
-0.98222929 -5.0110936 0.23813449
-0.98615384 -4.8819823 0.23226498
-1.0410693 -4.8644381 0.23198548
-1.071645 -4.8700681 0.23254448
-1.1014074 -4.8675203 0.23273081
-1.1312324 -4.8688798 0.23310347
-1.1606462 -4.868114 0.23338297
-1.191413 -4.8689032 0.23375565
-1.2210158 -4.8718624 0.23422147
-1.2508987 -4.8684011 0.23440781
-1.2824759 -4.8746405 0.23505998
-1.3124194 -4.8708024 0.23524632
-1.3425748 -4.8708663 0.23561898
-1.3733164 -4.8726678 0.23608482
-1.4041231 -4.8742762 0.23655064
-1.4338552 -4.878108 0.23710965
-1.4679294 -4.8804817 0.23766865
-1.4971873 -4.8757658 0.23785499
-1.5282319 -4.8765936 0.23832083
-1.5595779 -4.8750505 0.23869349
-1.5898777 -4.875761 0.23915932
-5.5309606 -5.9291539 -2.530148
-5.4224977 -5.7481818 -2.4658072
-5.3220444 -5.5750427 -2.4050407
-5.2174621 -5.4028401 -2.3436785
-5.1119905 -5.2311401 -2.2823162
-5.0145245 -5.0726228 -2.2257202
-5.0661411 -5.064373 -2.2352521
-5.1260486 -5.0691075 -2.2495501
-5.1855984 -5.0657167 -2.2620609
-5.2476492 -5.067596 -2.2763588
-5.3076277 -5.0685358 -2.290061
-5.3718209 -5.067461 -2.304359
-5.4372225 -5.070292 -2.3198485
-5.5024657 -5.0757513 -2.3359337
-5.5681233 -5.0719342 -2.3502316
-5.6375027 -5.0778117 -2.3675084
-5.7046151 -5.0772715 -2.382998
-5.7695994 -5.0758581 -2.3978918
-5.841959 -5.0801277 -2.4157641
-5.9078794 -5.0797844 -2.4312537
-5.9824567 -5.080677 -2.4491262
0.55532318 -4.8664575 0.34250429
0.52748984 -4.8635325 0.34208575
0.49926561 -4.8645053 0.34194624
0.47085544 -4.8633285 0.34166721
0.44198775 -4.8660369 0.34166721
0.41361615 -4.8645258 0.3413882
0.38622209 -4.874783 0.34194624
0.3588697 -4.8868756 0.3426438
0.33093873 -4.9048438 0.34375989
0.30378911 -4.9245906 0.34501553
0.27611515 -4.954195 0.34696871
0.25133851 -5.0134459 0.35101458
0.25760448 -5.8300614 0.40807536
-0.71651125 -6.0267367 0.42439839
-0.73318362 -5.8779855 0.41421396
-0.7401582 -5.6679187 0.39970461
-0.75067234 -5.5014634 0.38826454
-0.76069993 -5.3449564 0.37752202
-0.77278417 -5.2081223 0.36817467
-0.78360361 -5.0793614 0.35938534
-0.79265058 -4.9486828 0.35045654
-0.80662268 -4.8513908 0.34389943
-0.8342126 -4.8446984 0.34375989
-0.86245191 -4.8417773 0.34389943
-0.89068532 -4.8386922 0.34403893
-0.9207741 -4.845242 0.34487599
-0.95027822 -4.8436084 0.34515503
-0.97974098 -4.8458772 0.34571308
-1.0101075 -4.8477907 0.34627113
-1.0380025 -4.8459754 0.34655017
-1.0680414 -4.849659 0.34724772
-1.0985636 -4.8510189 0.34780577
-1.1282926 -4.8523846 0.34836382
-1.1571474 -4.8496866 0.34864286
-1.1868546 -4.8466105 0.3489219
-1.2163314 -4.8495822 0.34961945
-1.2470752 -4.850008 0.3501775
-1.2775282 -4.8523922 0.35087505
-1.3083779 -4.8524308 0.35143313
-1.3384259 -4.8525081 0.35199118
-1.3690598 -4.85432 0.35268873
-1.3997588 -4.8559394 0.35338628
-1.4288263 -4.8578653 0.35408387
-5.3456845 -6.4389081 -2.3996987
-5.2019897 -6.1907072 -2.3186615
-5.0682039 -5.9614406 -2.2436881
-4.9334612 -5.7377033 -2.1698172
-4.8207293 -5.5378017 -2.1053181
-4.7194633 -5.3607202 -2.0479856
-4.6313438 -5.1999335 -1.996717
-4.600276 -5.0467825 -1.9581277
-4.657939 -5.0512967 -1.9702559
-4.7114415 -5.0488677 -1.9801787
-4.7694764 -5.0524044 -1.9923068
-4.8237243 -5.0512681 -2.0027809
-4.8861308 -5.0579696 -2.0165629
-4.9442816 -5.0577559 -2.0281396
-5.0044217 -5.060636 -2.0408189
-5.0670013 -5.0634651 -2.0540495
-5.1225514 -5.0621138 -2.0650752
-5.1827607 -5.0611773 -2.077203
-5.2450209 -5.0632892 -2.0904336
-5.3074765 -5.0648508 -2.1036644
-5.3682098 -5.062284 -2.1157923
-5.4352469 -5.0666761 -2.1306767
-5.5002122 -5.0701203 -2.14501
0.49804428 -4.8693399 0.45665675
0.46884355 -4.8602347 0.45554203
0.43927646 -4.8549986 0.45479891
0.41130656 -4.8574481 0.45479891
0.38332298 -4.8597364 0.45479891
0.35518157 -4.8598776 0.45461312
0.32673648 -4.8678603 0.45517048
0.29942584 -4.881587 0.45628518
0.27100343 -4.8932195 0.45721409
0.24456155 -4.9125566 0.45888615
0.21653944 -4.939784 0.46130133
0.18903217 -4.9887404 0.46576014
0.16931157 -5.2703824 0.49195567
0.13834646 -5.2832384 0.49307039
0.10787441 -5.2819567 0.49288461
0.08377891 -5.6468539 0.52688307
0.051733136 -5.9280305 0.55307859
-0.48096552 -6.1524301 0.57574421
-0.49852464 -5.9492235 0.55698001
-0.51862204 -5.765583 0.54007369
-0.53606516 -5.597971 0.52465361
-0.5502457 -5.4264879 0.50886202
-0.56712675 -5.2805696 0.49548557
-0.58184785 -5.1387062 0.4824807
-0.59747672 -5.0105901 0.47077632
-0.61100113 -4.8845568 0.45925772
-0.66101742 -4.8318162 0.45498469
-0.6899606 -4.8358145 0.45572782
-0.71864462 -4.831635 0.45572782
-0.74767798 -4.8352876 0.45647097
-0.77709287 -4.8407321 0.45739987
-0.80613178 -4.8379998 0.45758566
-0.83499897 -4.8391638 0.45814303
-0.86355633 -4.8381948 0.45851457
-0.8928526 -4.8409743 0.45925772
-0.92109209 -4.837708 0.45944351
-0.95131952 -4.8399725 0.46018663
-0.98115635 -4.844172 0.46111557
-1.0111054 -4.8441124 0.4616729
-1.0377264 -4.8364425 0.46148711
-1.0664229 -4.8342748 0.46185869
-1.0986152 -4.8433976 0.46334496
-1.1282995 -4.8447475 0.46408811
-1.1580358 -4.8459158 0.46483123
-1.1886687 -4.8466949 0.46557438
-1.2176596 -4.8477058 0.4663175
1.3225774 -5.0057545 -1.3554018
1.3004049 -5.0355434 -1.3614798
1.2808405 -5.0804715 -1.3716098
-4.6631107 -6.1013026 -2.0103099
-4.5478425 -5.8799772 -1.9459841
-4.456419 -5.6937079 -1.8928013
-4.3747807 -5.5215788 -1.844177
-4.2942319 -5.358161 -1.7975788
-4.2199059 -5.2018614 -1.753513
-4.1377406 -5.0391607 -1.7069148
-4.2266359 -5.0281906 -1.7195773
-4.276835 -5.0288196 -1.7281879
-4.3288264 -5.0327249 -1.7378114
-4.3798184 -5.0295334 -1.7459155
-4.4295788 -5.0296774 -1.754526
-4.4863815 -5.0336351 -1.7651626
-4.5425072 -5.0378876 -1.7757992
-4.59231 -5.0345125 -1.7839032
-4.6487846 -5.0378394 -1.7945398
-4.7036872 -5.0370326 -1.8041633
-4.7631793 -5.0422068 -1.8158129
-4.8148651 -5.0384688 -1.8244234
-4.8747339 -5.0426483 -1.836073
-4.9289255 -5.038528 -1.84519
-4.9905257 -5.0430622 -1.8573462
-5.0491142 -5.0420694 -1.8679827
0.4099406 -4.8615003 0.57053226
0.38131168 -4.8558593 0.56960303
0.35304955 -4.8540125 0.56913841
0.32410687 -4.8540401 0.56890613
0.2962653 -4.8578091 0.56913841
0.2675426 -4.861465 0.56937075
0.24077934 -4.8708196 0.57029992
0.21230276 -4.8820853 0.57146144
0.18485443 -4.901093 0.57355213
0.15719417 -4.9199452 0.57564288
0.1290291 -4.9605074 0.58028889
0.10210545 -5.0425963 0.58981323
0.080318555 -5.4780769 0.64068729
-0.26080444 -5.9974236 0.7020148
-0.27970567 -5.6783729 0.6648466
-0.31230167 -5.6567788 0.66252357
-0.32706702 -5.3474984 0.62651688
-0.35679549 -5.3436065 0.6262846
-0.37664089 -5.1908875 0.60862964
-0.39686272 -5.053896 0.59283316
-0.41458884 -4.9268942 0.57819819
-0.4343155 -4.8095217 0.56472468
-0.48543015 -4.770689 0.56077558
-0.51436973 -4.7736492 0.56147248
-0.54230362 -4.7745552 0.56193709
-0.57086259 -4.7732253 0.56216937
-0.60600954 -4.8309598 0.56937075
-0.63434088 -4.8313284 0.56983531
-0.66269654 -4.831531 0.57029992
-0.6910755 -4.8315668 0.57076454
-0.72090602 -4.8352399 0.57169372
-0.74935138 -4.8349338 0.57215834
-0.77750158 -4.8324986 0.57239068
-0.80714583 -4.8336778 0.57308757
-0.83564919 -4.8328638 0.57355213
-0.86451966 -4.833837 0.57424909
-0.89306802 -4.8326845 0.57471365
-0.92237622 -4.8352656 0.57564288
-0.95220429 -4.8355541 0.57633978
-0.98082918 -4.8338833 0.5768044
-1.0115293 -4.8376999 0.57796586
-1.0385323 -4.831975 0.57796586
1.5198666 -4.9342742 -1.2233474
1.4852383 -4.9224515 -1.2182752
1.4541055 -4.9215922 -1.2159696
1.4224912 -4.9186687 -1.2132028
1.3916897 -4.9214053 -1.2118195
1.3628026 -4.9274635 -1.2113583
1.3333842 -4.9314737 -1.2104361
1.3045937 -4.9411807 -1.2108972
1.2784356 -4.9540429 -1.2122806
1.252341 -4.9747529 -1.2155085
1.2261008 -4.999321 -1.2196585
1.2049552 -5.0344806 -1.2265753
1.1869862 -5.0927157 -1.2390255
-4.1887527 -5.9666305 -1.72735
-4.0977912 -5.7640214 -1.6757047
-4.0174093 -5.5846438 -1.630054
-3.9416254 -5.4112668 -1.5862477
-3.8757179 -5.256896 -1.5475137
-3.8023472 -5.0956697 -1.5064743
-3.8191202 -4.9952016 -1.4898739
-3.8653712 -4.9939966 -1.4963295
-3.9096706 -4.9915681 -1.5023241
-3.9621949 -4.9972539 -1.5110854
-4.0058718 -4.9947834 -1.5170799
-4.0562925 -4.9966097 -1.5249189
-4.1056395 -4.9965091 -1.5322969
-4.1546278 -4.9989452 -1.5401359
-4.2055154 -4.9995208 -1.5479748
-4.2556829 -5.0004106 -1.5558139
-4.3076663 -5.0045891 -1.5645752
-4.3598924 -5.0031242 -1.5724142
-4.4135017 -5.0078969 -1.5816365
-4.4642887 -5.0070877 -1.5894755
-4.5191226 -5.0101948 -1.5986979
-4.5728278 -5.0113974 -1.6074592
-4.6240559 -5.0092869 -1.6152982
0.47851866 -4.9878554 0.70421588
0.41252148 -4.9023261 0.69141197
0.38335121 -4.8927736 0.68974191
0.35373136 -4.8751469 0.68695843
0.32426921 -4.8692555 0.68584502
0.29597864 -4.8670888 0.68528837
0.26698324 -4.8667817 0.68501002
0.23960309 -4.8642406 0.68445331
0.21107686 -4.8734918 0.68556672
0.18230134 -4.8786168 0.68612337
0.15457499 -4.8914633 0.68779349
0.12590156 -4.9061532 0.68974191
0.098193869 -4.9345193 0.69363874
0.071001396 -4.9607348 0.69725722
-0.11016307 -5.3482938 0.75181311
-0.14195089 -5.3495255 0.75209147
-0.16820116 -5.235817 0.73622572
-0.19332987 -5.1021605 0.7175765
-0.21718389 -4.974329 0.69976234
-0.23966978 -4.8483739 0.68222654
-0.29319185 -4.779953 0.67304111
-0.32054487 -4.7881217 0.67443287
-0.34782967 -4.7822452 0.67387617
-0.37713414 -4.7919436 0.67554623
-0.40372497 -4.7877889 0.67526788
-0.43367806 -4.7931232 0.67638129
-0.46089748 -4.7866035 0.67582458
-0.48842692 -4.7918358 0.67693794
-0.51791608 -4.7986984 0.67832971
-0.54554588 -4.7956362 0.67832971
-0.57375842 -4.7903476 0.67805135
-0.60257345 -4.7967892 0.67944306
-0.630449 -4.7952027 0.67972142
-0.66129047 -4.8150373 0.6830616
-0.6946274 -4.8503594 0.68862849
-0.72369003 -4.8481112 0.68890685
-0.75311935 -4.8536482 0.69029856
-0.78106171 -4.8492298 0.69029856
-0.81047678 -4.8484163 0.69085526
-0.83940142 -4.8495226 0.69169033
-0.86871469 -4.8524055 0.69280368
1.5695658 -4.996264 -1.1131592
1.5266596 -4.9624844 -1.1035953
1.4878924 -4.9374795 -1.0961105
1.4544472 -4.92908 -1.092368
1.4206054 -4.9185805 -1.0882097
1.388203 -4.915628 -1.0857148
1.3562224 -4.9103422 -1.0828041
1.3258787 -4.9105172 -1.0811408
1.2962172 -4.9164071 -1.080725
1.2682506 -4.9216752 -1.0803092
1.2394996 -4.9310117 -1.080725
1.211216 -4.9460921 -1.0823883
1.1844825 -4.9565849 -1.0832199
1.1590394 -4.9806752 -1.0869623
1.1350902 -5.008255 -1.0915364
1.1151147 -5.0508118 -1.099437
-3.7960548 -5.8948421 -1.490311
-3.7114015 -5.6932783 -1.4445704
-3.6545649 -5.5340281 -1.4096413
-3.5919213 -5.3736596 -1.3738805
-3.5252237 -5.2086916 -1.3368722
-3.4554167 -5.0408449 -1.2990322
-3.4986327 -4.979898 -1.2936265
-3.5428653 -4.9797716 -1.2990322
-3.5831947 -4.9773712 -1.3036063
-3.6299531 -4.9797339 -1.3098437
-3.6748345 -4.980783 -1.3156651
-3.7198474 -4.9814801 -1.3214867
-3.7661695 -4.9833837 -1.3277241
-3.8123176 -4.9826989 -1.3335456
-3.8597875 -4.9831877 -1.339783
-3.9053199 -4.98243 -1.3456044
-3.9567046 -4.9867525 -1.3530893
-4.001637 -4.9859362 -1.3589108
-4.0484228 -4.9833598 -1.3647324
-4.101531 -4.9879584 -1.372633
-4.1505904 -4.9905429 -1.379702
-4.2015491 -4.9912677 -1.386771
-4.2505217 -4.9908156 -1.3934242
0.38597387 -4.9484282 0.81546617
0.35462403 -4.9112005 0.80898136
0.32403937 -4.8915567 0.80541474
0.29466972 -4.8736429 0.8021723
0.26531428 -4.8674231 0.80087537
0.23783624 -4.8629155 0.79990262
0.011216941 -4.9437099 0.81222379
-0.018242616 -4.9772391 0.81773585
-0.046016201 -4.8823261 0.8021723
-0.071802318 -4.7833266 0.78596026
-0.099937737 -4.770978 0.78401482
-0.12835345 -4.7742462 0.78466326
-0.15507978 -4.7754278 0.78498751
-0.18280779 -4.7803717 0.78596026
-0.21033756 -4.7792392 0.78596026
-0.23795851 -4.7799196 0.78628451
-0.26620895 -4.776453 0.78596026
-0.29479116 -4.778729 0.78660876
-0.3217409 -4.7809463 0.78725719
-0.34941554 -4.780982 0.78758144
-0.37793565 -4.7807918 0.78790569
-0.40496364 -4.7825394 0.78855419
-0.43470633 -4.7858729 0.78952688
-0.46283314 -4.7891827 0.79049963
-0.48917201 -4.7825966 0.78985113
-0.51818109 -4.7854958 0.79082388
-0.54595858 -4.7843928 0.79114813
-0.57481074 -4.7849874 0.79179657
-0.60359395 -4.791388 0.79341781
-0.63092226 -4.7858753 0.79309356
-0.65928394 -4.7880273 0.79406625
-0.68713033 -4.7861042 0.7943905
1.5146248 -5.0325475 -0.99019343
1.4293194 -4.9552388 -0.9716782
1.392954 -4.9390421 -0.96686423
1.3592583 -4.9280362 -0.96316117
1.3267591 -4.9206018 -0.96019876
1.2940336 -4.9150839 -0.95760661
1.2650932 -4.9165244 -0.9564957
1.2357976 -4.9199166 -0.95575511
1.2043192 -4.9216466 -0.9546442
1.1777259 -4.9321194 -0.95538479
1.1475755 -4.9392219 -0.95538479
1.1217114 -4.9572511 -0.95760661
1.0965673 -4.9709244 -0.95908785
1.0711212 -5.0005922 -0.96353149
1.0466316 -5.0318751 -0.96834546
1.0343664 -5.1206598 -0.98426855
-3.4991157 -5.9521914 -1.3008786
-3.4317529 -5.7568192 -1.2627373
-3.3632441 -5.5687189 -1.2257068
-3.2886701 -5.3771491 -1.1875656
-3.2344577 -5.2166462 -1.1564599
-3.1787357 -5.0614495 -1.1260951
-3.2068284 -4.9760232 -1.1153562
-3.2433665 -4.9734168 -1.1186889
-3.2869058 -4.9754009 -1.123503
-3.327528 -4.9743571 -1.1275762
-3.3682468 -4.9730101 -1.1316496
-3.4132631 -4.975625 -1.1368339
-3.4553175 -4.975255 -1.1412776
-3.4997411 -4.9777808 -1.1464617
-3.5406172 -4.9729362 -1.1501648
-3.58442 -4.9754095 -1.155349
-3.6312559 -4.9778695 -1.1609037
-3.6762097 -4.9790082 -1.1660879
-3.7201202 -4.9782195 -1.1709019
-3.7641432 -4.9770894 -1.1757158
-3.8127286 -4.9796333 -1.1816406
-3.8569953 -4.977788 -1.1864547
-3.905005 -4.9802375 -1.1923795
-3.9552617 -4.9831476 -1.1986747
0.17873678 -4.8512955 0.91465133
0.12011936 -4.7783914 0.90057981
0.065470092 -4.7480025 0.89465493
0.036555711 -4.7601061 0.89687675
0.0099698296 -4.7602363 0.89687675
-0.018262897 -4.7562809 0.89613616
-0.045713253 -4.7619925 0.89724708
-0.072248697 -4.7577329 0.89650643
-0.10056322 -4.7611504 0.89724708
-0.12881452 -4.7604694 0.89724708
-0.15610161 -4.7557201 0.89650643
-0.18386881 -4.7645617 0.89835799
-0.2110462 -4.7575336 0.89724708
-0.23903443 -4.7680168 0.8994689
-0.26710394 -4.7625895 0.89872825
-0.29584762 -4.7687674 0.90020949
-0.32234403 -4.7650795 0.89983916
-0.35021526 -4.7690244 0.90095007
-0.37882003 -4.7707806 0.90169072
-0.40529254 -4.7666321 0.9013204
-0.43458098 -4.7660251 0.90169072
-0.46259317 -4.7693114 0.90280163
-0.490226 -4.7764292 0.90465313
-0.51919788 -4.7792978 0.90576404
