# .PCD v0.7 - Point Cloud Data file format
VERSION 0.7
FIELDS x y z
SIZE 4 4 4
TYPE F F F
COUNT 1 1 1
WIDTH 782
HEIGHT 1
VIEWPOINT 0 0 0 1 0 0 0
POINTS 782
DATA ascii
0.0049314126 3.1394322 -1.8618381
0.022649787 3.1651585 -1.8771409
0.041499257 3.1701288 -1.8802015
0.059821948 3.1732771 -1.8822418
0.078949794 3.1849041 -1.8893831
0.09744972 3.1895549 -1.8924437
0.11675151 3.199235 -1.8985648
0.13526851 3.2140017 -1.9077464
0.15369526 3.2114508 -1.9067262
0.17441329 3.2414019 -1.9250896
0.19322802 3.2523978 -1.9322308
0.21410465 3.2666056 -1.9414126
0.23344423 3.280802 -1.9505942
0.25312817 3.2896941 -1.9567153
0.27264503 3.2881341 -1.9567153
0.29188275 3.2899363 -1.9587557
0.31212157 3.3019013 -1.9669172
0.33954963 3.3839195 -2.0169063
0.36484525 3.4366477 -2.0495522
0.39884666 3.5557981 -2.1219854
-1.1465877 3.5669246 -2.2219634
-1.1275759 3.5783913 -2.225024
-1.0966837 3.5537882 -2.2056406
-1.0642506 3.5205262 -2.1811562
-1.0348003 3.4934273 -2.1607523
-1.0071242 3.4710662 -2.1434093
-0.98308653 3.4672236 -2.1372881
-0.95744073 3.454761 -2.126066
-0.93302828 3.4436145 -2.1158643
-0.90657467 3.4239872 -2.1005614
-0.88210112 3.4108319 -2.0893395
-0.85629529 3.3890202 -2.0730164
-0.82817531 3.364121 -2.0546532
-0.8035652 3.34709 -2.0413907
-0.78074664 3.3365877 -2.0322092
-0.75940531 3.3344529 -2.0281284
-0.73609215 3.3202972 -2.0169063
-0.71369267 3.3093474 -2.0077245
-0.69214976 3.3016176 -2.0005834
-0.6683169 3.2819502 -1.9863007
-0.64683026 3.2757325 -1.9801795
-0.62568814 3.2675769 -1.9730383
-0.60471958 3.2627749 -1.9679374
-0.58192694 3.2407041 -1.9526346
-0.56266373 3.2406123 -1.9505942
-0.54200268 3.2354112 -1.9454933
-0.52172643 3.2248025 -1.9373318
-0.50099307 3.217643 -1.9312108
-0.48010853 3.2086504 -1.9240694
-0.46095535 3.2027681 -1.9189684
-0.44076699 3.1969266 -1.9138676
-0.42144629 3.1925905 -1.9097868
-0.40240547 3.1898446 -1.9067262
-0.38182819 3.1785128 -1.8985648
-0.36387455 3.1788867 -1.8975446
-0.34537533 3.1844103 -1.899585
-0.32650191 3.1812129 -1.8965244
-0.30629477 3.1693964 -1.8883629
-0.28936839 3.1796234 -1.8934639
-0.27116659 3.1760478 -1.8904033
-0.25189614 3.1793599 -1.8914235
-0.23307632 3.1738956 -1.8873427
-0.21493287 3.1855206 -1.8934639
-0.19637029 3.1832719 -1.8914235
-0.17870499 3.196373 -1.8985648
-0.15917262 3.1750143 -1.8853023
-0.13973978 3.1501 -1.8699995
-0.11972364 3.1164944 -1.8495959
-0.065459184 3.1249886 -1.8536767
-0.048005022 3.1253054 -1.8536767
0.006539186 3.122227 -1.8516363
0.043689262 3.1288097 -1.8557169
0.0061862157 3.2222147 -1.810445
0.024195353 3.2238734 -1.8114246
0.043466255 3.2341337 -1.8173027
0.062092707 3.2338297 -1.8173027
0.081281431 3.2334044 -1.8173027
0.10173416 3.2921376 -1.8506117
0.12178177 3.3054156 -1.8584492
0.14053641 3.3116522 -1.8623679
0.16019544 3.322979 -1.8692256
0.18047722 3.3324163 -1.8751037
0.20085429 3.3609452 -1.8917582
0.22092268 3.3526962 -1.8878396
0.24175826 3.3809762 -1.904494
0.26364595 3.4108195 -1.9221282
0.28518361 3.4248335 -1.9309453
0.30722481 3.4491854 -1.9456404
0.32741487 3.4508305 -1.9475999
0.35007975 3.476645 -1.9632747
0.37859312 3.5543268 -2.0083399
0.40143281 3.5676117 -2.0171571
0.42217895 3.566972 -2.0181367
0.45259237 3.6388066 -2.0602629
-1.1861323 3.7688107 -2.2199504
-1.1473128 3.7224622 -2.1886005
-1.1283739 3.7373545 -2.1934991
-1.0862138 3.6717024 -2.1513729
-1.0627786 3.6676633 -2.1454947
-1.035604 3.6573102 -2.1356981
-1.0050464 3.6314626 -2.1170843
-0.97956008 3.6203599 -2.1072874
-0.94799548 3.585485 -2.083775
-0.9216612 3.5689383 -2.0710392
-0.89787531 3.5588143 -2.0622222
-0.87112463 3.5439141 -2.0504661
-0.84338278 3.518352 -2.0328319
-0.81913787 3.5061719 -2.023035
-0.79406494 3.4922686 -2.0122585
-0.77167714 3.4865696 -2.0063806
-0.74717939 3.4705014 -1.9946244
-0.72396404 3.4593875 -1.9858073
-0.70055425 3.446413 -1.9760106
-0.6753701 3.4265594 -1.9622951
-0.65365952 3.4201167 -1.956417
-0.63049835 3.4085045 -1.9475999
-0.60929894 3.3999586 -1.9407421
-0.5864321 3.3845131 -1.9299656
-0.56518787 3.3810546 -1.926047
-0.54490644 3.3755517 -1.9211485
-0.52192187 3.3597732 -1.9103721
-0.50017351 3.3507395 -1.9035144
-0.48120397 3.3517549 -1.9025347
-0.4596431 3.3424597 -1.895677
-0.43970165 3.3398654 -1.8927379
-0.41762903 3.3198528 -1.880002
-0.39854348 3.3274662 -1.8829411
-0.37797642 3.3123164 -1.8731444
-0.35756457 3.3075669 -1.8692256
-0.33744404 3.2991641 -1.8633475
-0.31786057 3.3011084 -1.8633475
-0.29863173 3.2941496 -1.8584492
-0.27978602 3.290554 -1.8555101
-0.25872031 3.2800341 -1.8486524
-0.2395703 3.277992 -1.846693
-0.21672782 3.2289042 -1.8182824
-0.19780694 3.2248778 -1.8153434
-0.16047332 3.2234595 -1.8133839
-0.1420583 3.2278142 -1.8153434
-0.12455981 3.2721593 -1.8398353
-0.10531754 3.2606235 -1.8329775
-0.047839761 3.1869891 -1.7908514
-0.028895406 3.1837296 -1.788892
-0.0099914214 3.1803577 -1.7869327
0.0077966736 3.1908257 -1.7928107
0.026202885 3.1942151 -1.7947701
0.045689672 3.1922519 -1.7937905
0.007027111 3.3551934 -1.7839919
0.025399694 3.3074241 -1.7586405
0.044977702 3.3036838 -1.7567626
0.064073123 3.306901 -1.7586405
0.083740108 3.308228 -1.7595794
0.10301205 3.3147509 -1.7633352
0.12254959 3.3105519 -1.7614573
0.14171381 3.3256946 -1.7699078
0.16171938 3.3424613 -1.7792972
0.18126357 3.336153 -1.7764804
0.20126672 3.3580041 -1.7886866
0.22293989 3.3743327 -1.798076
0.24380225 3.4012167 -1.8130991
0.2655701 3.4279261 -1.8281223
0.28899077 3.4632452 -1.8478401
0.31442696 3.5230849 -1.8807031
0.33604997 3.5352793 -1.8882146
0.42637333 3.7833202 -2.0243614
0.45917332 3.8737433 -2.0741253
-1.1523267 3.8190992 -2.1210725
-1.1244705 3.8034606 -2.1088662
-1.0963339 3.7859347 -2.095721
-1.0626086 3.7551792 -2.0750644
-1.032304 3.7324848 -2.0591023
-1.0011102 3.7025702 -2.0393844
-0.97164881 3.6775432 -2.0224836
-0.94471544 3.66085 -2.0102773
-0.91907442 3.6455214 -1.99901
-0.88878495 3.618484 -1.9811699
-0.8638159 3.6063697 -1.9717805
-0.83700883 3.5854902 -1.9576964
-0.81376135 3.581784 -1.9530017
-0.78549224 3.5519269 -1.9342228
-0.76093662 3.5374014 -1.9238944
-0.73657453 3.5227118 -1.9135661
-0.71240699 3.5078595 -1.9032377
-0.68919027 3.499897 -1.8966651
-0.66637141 3.4899318 -1.8891536
-0.64212018 3.4747233 -1.8788252
-0.61928064 3.4591343 -1.8684968
-0.59452838 3.4348035 -1.8534738
-0.57442635 3.4400127 -1.8544127
-0.55155033 3.4205034 -1.8422064
-0.52907693 3.4097559 -1.8346949
-0.50805265 3.4075959 -1.8318781
-0.48700801 3.3963962 -1.8243665
-0.46612415 3.3939779 -1.8215497
-0.44357613 3.3738453 -1.8093435
-0.42347661 3.3710878 -1.8065265
-0.40178722 3.3595142 -1.799015
-0.38241827 3.3564422 -1.7961982
-0.3615467 3.349874 -1.7915034
-0.34135005 3.343117 -1.7868087
-0.32066095 3.3362947 -1.782114
-0.30090877 3.3257225 -1.7755414
-0.28203124 3.323832 -1.7736635
-0.26186052 3.3272533 -1.7746025
-0.24166541 3.3146167 -1.7670909
-0.22175603 3.3124685 -1.7652131
-0.20213498 3.3048778 -1.7605183
-0.183097 3.3059871 -1.7605183
-0.16344048 3.2946408 -1.7539457
-0.14453945 3.2972915 -1.7548847
-0.1245693 3.2875035 -1.749251
-0.10517908 3.2740467 -1.7417395
-0.086180687 3.2693021 -1.7389227
-0.04914486 3.3124549 -1.7614573
0.0087885084 3.3569553 -1.7849308
0.04768163 3.2912834 -1.75019
0.028725721 3.5778852 -1.7972001
0.088258006 3.4392529 -1.7280771
0.10694236 3.4029608 -1.7101229
0.12673351 3.3915505 -1.7047367
0.14651725 3.4104311 -1.7146114
0.16615738 3.4095306 -1.7146114
0.18755791 3.4298992 -1.7253839
0.20800166 3.4502058 -1.7361563
0.22966598 3.4577873 -1.7406448
0.25102869 3.4849722 -1.7550081
0.27900049 3.5850327 -1.8061771
0.36257374 3.80023 -1.9174922
0.39597461 3.9118788 -1.9749452
0.42439577 3.9646223 -2.002774
-1.188609 3.9443254 -2.0692039
-1.1325607 3.9161515 -2.0476589
-1.0959808 3.8782804 -2.0243187
-1.0729474 3.8847158 -2.0243187
-1.0421696 3.8597734 -2.0081601
-1.011259 3.8328784 -1.9911038
-0.97980112 3.802295 -1.972252
-0.9489513 3.7695789 -1.9525026
-0.92292678 3.763155 -1.9462186
-0.89417046 3.7388589 -1.9309577
-0.86653626 3.7178385 -1.9174922
-0.83971488 3.7019999 -1.9067198
-0.8141408 3.6875777 -1.896845
-0.78951126 3.6764793 -1.8887657
-0.76321089 3.6564724 -1.8761979
-0.7371673 3.6362853 -1.8636301
-0.71247411 3.6248128 -1.8555508
-0.68690079 3.6042776 -1.8429829
-0.6596657 3.576654 -1.8268243
-0.63810807 3.5714858 -1.8223357
-0.6166147 3.5698183 -1.8196427
-0.59101409 3.5469708 -1.8061771
-0.56807208 3.5308068 -1.7963023
-0.54519606 3.5217524 -1.7900184
-0.52349931 3.5196223 -1.7873254
-0.50130337 3.5047991 -1.7783483
-0.47807127 3.4900053 -1.7693713
-0.45703304 3.4856126 -1.7657804
-0.43495062 3.4722271 -1.7577012
-0.4130688 3.4640992 -1.7523149
-0.39311019 3.4610248 -1.7496219
-0.37122715 3.4508576 -1.743338
-0.34917456 3.4316022 -1.7325655
-0.32914573 3.4371719 -1.7343609
-0.30850005 3.4229367 -1.7262816
-0.28877613 3.4174829 -1.7226908
-0.26677784 3.4049292 -1.7155092
-0.24703322 3.4046266 -1.7146114
-0.22623174 3.3971162 -1.7101229
-0.20611969 3.3894434 -1.7056345
-0.18580893 3.3762982 -1.6984528
-0.1664478 3.3790975 -1.6993505
-0.14682765 3.3764288 -1.6975551
-0.12645382 3.3683109 -1.6930666
-0.10676794 3.3600519 -1.6885781
-0.087227874 3.3534646 -1.6849873
-0.06711138 3.3432021 -1.6796011
-0.028978961 3.388432 -1.7020437
0.050745629 3.4203494 -1.7182022
0.0097478665 3.4906886 -1.652284
0.029864205 3.5646935 -1.6873661
0.051534284 3.6006041 -1.7044795
0.072089903 3.5912108 -1.7002012
0.090625882 3.4841006 -1.6497171
0.11149502 3.508816 -1.6616963
0.1317696 3.4936411 -1.654851
0.15174894 3.5036869 -1.6599849
0.17236921 3.5117826 -1.6642632
0.1943974 3.5323577 -1.6745312
0.21488857 3.5438478 -1.6805209
0.24171123 3.620028 -1.7173144
0.2683202 3.7069685 -1.7592418
0.32786816 3.8963223 -1.8507977
0.35759166 3.9753892 -1.8893025
-1.369735 4.365489 -2.1656814
-1.2263808 4.0748172 -2.0142293
-1.2097393 4.1024098 -2.024497
-1.1843003 4.1004186 -2.0202188
-1.1494105 4.0727811 -2.0031056
-1.1093603 4.0220232 -1.9748688
-1.0791177 4.0021648 -1.9620337
-1.0514436 3.9908333 -1.9534771
-1.0225844 3.9740639 -1.9423536
-1.0030174 3.9902322 -1.9474876
-0.97733402 3.9910171 -1.9449205
-0.94047606 3.9385567 -1.9166837
-0.90958172 3.9086945 -1.8995705
-0.87998295 3.8858142 -1.8858799
-0.85019475 3.8572764 -1.8696222
-0.81583869 3.8055475 -1.842241
-0.78542578 3.7694798 -1.8225608
-0.76477784 3.7792563 -1.8251278
-0.74268597 3.785502 -1.8259835
-0.70600754 3.7115784 -1.7883344
-0.68266124 3.708591 -1.7849116
-0.65717816 3.6856513 -1.7720767
-0.63532543 3.6858122 -1.7703655
-0.60869843 3.6609857 -1.7566749
-0.58595002 3.6500492 -1.7498295
-0.56317627 3.6463158 -1.7464069
-0.53781426 3.6245596 -1.7344276
-0.51603061 3.6167693 -1.7292936
-0.49260163 3.6054392 -1.7224483
-0.46924946 3.5884995 -1.7130361
-0.44633287 3.5732048 -1.7044795
-0.42426765 3.5686102 -1.7010567
-0.40229642 3.5529616 -1.6925001
-0.38043487 3.5480967 -1.6890775
-0.35889891 3.539438 -1.6839435
-0.33685911 3.5307083 -1.6788095
-0.31632656 3.5235322 -1.6745312
-0.29542997 3.510833 -1.667686
-0.2725724 3.4945498 -1.6591293
-0.25218046 3.4924557 -1.657418
-0.23133199 3.4920869 -1.6565623
-0.21023339 3.4771216 -1.6488614
-0.18951231 3.4656396 -1.6428717
-0.1691954 3.4594514 -1.6394491
-0.14934559 3.4621744 -1.6403048
-0.1284622 3.4539673 -1.6360264
-0.10845318 3.4510365 -1.6343151
-0.088250332 3.4389539 -1.6283255
-0.067520887 3.4231508 -1.6206245
-0.028233701 3.4417779 -1.6291811
-0.0080924118 3.566617 -1.6882218
0.011809375 3.5611835 -1.6856549
0.033009067 3.6369774 -1.7215927
0.055060655 3.6258628 -1.7164587
0.010419316 3.5116532 -1.5634956
0.030156825 3.5261564 -1.5700034
0.051133741 3.5295694 -1.5716304
0.093216121 3.5597799 -1.5854595
0.11447582 3.5829241 -1.5960346
0.13621946 3.5949621 -1.6017289
0.1573272 3.6178751 -1.6123041
0.17906083 3.6351576 -1.6204388
0.20153548 3.65045 -1.6277601
0.23234522 3.8206973 -1.7042265
0.26019564 3.886658 -1.7343251
0.32082576 4.0947514 -1.8286879
-1.2426395 4.2166924 -1.9572167
-1.2140031 4.2060122 -1.949082
-1.1996943 4.2537951 -1.9677919
-1.2152131 4.4087973 -2.0361238
-1.2021593 4.4615917 -2.0572739
-1.1966414 4.6538658 -2.1394348
-1.1688504 4.6533885 -2.1361809
-1.1305037 4.7380209 -2.1687198
-1.1122997 4.7836046 -2.1866162
-0.85682136 4.0001206 -1.8213667
-0.82632053 3.9692144 -1.8050972
-0.79439402 3.9291363 -1.7847604
-0.77071279 3.9319882 -1.7839469
-0.74600327 3.9293122 -1.7806931
-0.71344626 3.8796351 -1.7562888
-0.69272846 3.8889556 -1.7587292
-0.66499293 3.865988 -1.7465272
-0.6381526 3.8464341 -1.735952
-0.60885805 3.8012278 -1.7139882
-0.58639741 3.80106 -1.7123612
-0.56517053 3.8135095 -1.7164286
-0.54257441 3.8075624 -1.7123612
-0.51008976 3.7383025 -1.6798223
-0.48500156 3.7140026 -1.6676202
-0.46021032 3.689539 -1.6554182
-0.43852356 3.6940193 -1.6562316
-0.4160383 3.6800711 -1.6489104
-0.39263734 3.6679413 -1.6424025
-0.36874506 3.642875 -1.6302005
-0.34660178 3.6395423 -1.6277601
-0.32545421 3.6323223 -1.6236926
-0.30485675 3.6304419 -1.6220658
-0.28097293 3.6103776 -1.6123041
-0.26004282 3.6101136 -1.6114906
-0.23741101 3.5933619 -1.6033559
-0.21605121 3.5837271 -1.598475
-0.1948103 3.5739655 -1.5935942
-0.17342141 3.571409 -1.5919672
-0.15300177 3.5613692 -1.5870864
-0.1313249 3.5476079 -1.5805786
-0.10993027 3.5373673 -1.5756978
-0.089739718 3.5452478 -1.5789516
-0.068027847 3.5110097 -1.5634956
-0.049081571 3.5149803 -1.5651226
-0.028295862 3.5243447 -1.56919
-0.0073548164 3.5116611 -1.5634956
0.012283523 3.5189557 -1.5667496
0.032838251 3.5498857 -1.5805786
0.012190706 3.6761761 -1.5355251
0.03286989 3.6926594 -1.5424626
0.054918751 3.7016256 -1.5463169
0.076465584 3.7123184 -1.5509419
0.099129841 3.7357821 -1.5609629
0.12195534 3.7757287 -1.5779215
0.14576913 3.811821 -1.5933385
0.16713679 3.8127911 -1.5941093
0.19037414 3.8375704 -1.6049012
0.22194743 3.9948399 -1.671194
0.27360225 4.0656242 -1.7020278
0.31670237 4.3438029 -1.8191963
0.35489181 4.5093279 -1.8893433
0.39067546 4.6137986 -1.9340523
-1.2538748 4.3498492 -1.890885
-1.2302817 4.3680859 -1.8955101
-1.2062985 4.3824267 -1.8985934
-1.1838353 4.9692202 -2.1337016
-1.1597859 4.9957304 -2.1421807
-1.1378469 5.036727 -2.1568267
-1.1302184 5.1405282 -2.1984525
-1.0645978 5.2750649 -2.2477868
-0.97395295 5.1348481 -2.1830356
-0.93980056 5.1205707 -2.1745563
-0.90989542 5.1184716 -2.1714728
-0.63122636 3.9452868 -1.6688814
-0.60639983 3.9398432 -1.6650271
-0.58489919 3.9561517 -1.670423
-0.56772941 3.9940717 -1.6850691
-0.53879207 3.9589694 -1.6688814
-0.51455128 3.9510267 -1.6642563
-0.48768646 3.9209602 -1.6503811
-0.46093994 3.8944621 -1.6380476
-0.43401524 3.8511288 -1.6187764
-0.41017574 3.8444612 -1.6149222
-0.38413703 3.8082006 -1.5987344
-0.36013755 3.7957151 -1.5925677
-0.33696413 3.7756093 -1.5833175
-0.31633338 3.7829494 -1.5856301
-0.29250616 3.7756114 -1.5817758
-0.26930404 3.7569852 -1.5732964
-0.24664196 3.7529926 -1.5709839
-0.224139 3.7396135 -1.5648172
-0.20219758 3.7334712 -1.5617338
-0.17953166 3.7106106 -1.5517128
-0.15878578 3.7263336 -1.5578796
-0.13585909 3.7050793 -1.5486294
-0.11446023 3.7039559 -1.5478586
-0.093078822 3.7027087 -1.5470877
-0.070608996 3.6773639 -1.5362959
-0.04976825 3.6555572 -1.5270457
-0.028131679 3.6631699 -1.5301291
0.03459752 3.6040564 -1.5054621
0.056786593 3.6148493 -1.5100871
0.014032039 3.8284431 -1.4949673
0.035568867 3.8450713 -1.5015147
0.058611516 3.8596947 -1.5073345
0.081347875 3.8835068 -1.5167917
0.10474198 3.895992 -1.5218841
0.12833449 3.9307024 -1.5357062
0.15474653 4.0099211 -1.5669876
0.17861991 4.0424957 -1.5800823
0.2071984 4.1474586 -1.6215485
0.2392938 4.2800832 -1.6739269
0.27154437 4.4144225 -1.7270328
0.30818725 4.5558052 -1.7830486
0.34805527 4.7509632 -1.8601613
0.38510293 4.8714557 -1.9081749
-1.2750698 4.4291863 -1.7997806
-1.2606009 4.4817276 -1.8179675
-1.2359589 4.496315 -1.8208776
-1.1940882 4.4439855 -1.7968707
-1.1566464 4.4057407 -1.7786838
-1.1247746 4.3870649 -1.7684991
-1.2549732 5.2759948 -2.1176884
-1.224565 5.2831354 -2.1176884
-1.1997511 5.3193865 -2.1293283
-1.1623039 5.2952738 -2.116961
-1.1306194 5.2964144 -2.1147785
-1.0518754 5.2214236 -2.0798597
-1.0123028 5.1836905 -2.0624001
-0.9813906 5.1839437 -2.0602179
-0.94960433 5.1841784 -2.0580354
-0.92193747 5.1967387 -2.0609453
-0.89073187 5.1946177 -2.0580354
-0.85715526 5.1832695 -2.0514879
-0.82966167 5.1971745 -2.0551255
-0.65657657 4.275773 -1.689204
-0.63608521 4.3127689 -1.7022985
-0.44717839 3.9804137 -1.5640777
-0.39408165 3.9204924 -1.5386161
-0.37186211 3.9338903 -1.5429809
-0.35038033 3.9414728 -1.5451633
-0.32789785 3.9377985 -1.5429809
-0.30312097 3.9304407 -1.5393435
-0.27795988 3.8968139 -1.5255214
-0.2293818 3.8495858 -1.5058795
-0.20660549 3.8396811 -1.5015147
-0.18421906 3.8352249 -1.4993322
-0.16157617 3.8231931 -1.4942398
-0.13861571 3.8166373 -1.4913299
-0.11668817 3.8192346 -1.4920574
-0.094642974 3.8179808 -1.4913299
-0.071458369 3.7905352 -1.4804177
-0.050311733 3.792738 -1.4811453
-0.027585916 3.7631626 -1.4695057
-0.0052727144 3.7763009 -1.4745979
0.015708851 3.7501898 -1.4644133
0.037326545 3.7519 -1.4651407
0.060155019 3.7460136 -1.4629583
0.015356294 3.9993024 -1.4556377
0.038170494 4.0498953 -1.4741068
0.062519751 4.0702682 -1.4816313
0.086199768 4.0811143 -1.4857355
0.11148348 4.1199837 -1.5001004
0.13810873 4.2075567 -1.5322503
0.16613193 4.2855382 -1.56098
0.19497819 4.3953185 -1.6013383
0.26141024 4.6610684 -1.699156
0.29715848 4.8171043 -1.7566154
0.3412036 5.0308332 -1.8352801
0.38388574 5.227529 -1.9077884
-1.2968343 4.6136351 -1.7443027
-1.2624644 4.5958776 -1.7347262
-1.2286626 4.5758467 -1.7244656
-1.1960876 4.5592146 -1.7155731
-1.1534836 4.5023074 -1.6916317
-1.1233014 4.488625 -1.6841072
-1.0860686 4.4552326 -1.6690583
-1.0660402 4.4851842 -1.6779509
-1.2322836 5.3206568 -1.9878211
-1.1949042 5.3022079 -1.9782445
-1.1695799 5.3328667 -1.9871371
-1.1572709 5.4259028 -2.0192869
-1.1103621 5.3570271 -1.9912412
-1.0624313 5.2785811 -1.9597754
-1.0303693 5.2811036 -1.9584073
-0.98854446 5.2317238 -1.9378861
-0.95139802 5.2042203 -1.9255733
-0.92133456 5.2039008 -1.9235213
-0.89546788 5.2332029 -1.9324138
-0.86225593 5.2254443 -1.9276255
-0.8318758 5.222755 -1.9248893
-0.79859203 5.2127376 -1.919417
-0.76627731 5.2080879 -1.9159968
-0.73586214 5.2029819 -1.9125767
-0.70522636 5.2091193 -1.9132607
-0.6718328 5.1870012 -1.9036841
-0.64010149 5.1758633 -1.8982118
-0.36987454 4.1690154 -1.5233577
-0.33755827 4.062386 -1.4836833
-0.31244805 4.0606246 -1.4823153
-0.28692123 4.0323625 -1.4713707
-0.26274329 4.0302434 -1.4700025
-0.23841192 4.012929 -1.4631622
-0.21479201 4.0048523 -1.459742
-0.19075456 4.0004244 -1.4576899
-0.16731723 3.9920683 -1.4542696
-0.14207122 3.9497929 -1.4385368
-0.11818506 3.9129751 -1.4248559
-0.095186926 3.8948026 -1.4180155
-0.071899325 3.8859036 -1.4145954
-0.050001156 3.8712108 -1.4091229
-0.027159389 3.8902326 -1.4159634
-0.0041388874 3.9523449 -1.4385368
0.017449005 3.8451827 -1.3995464
0.04002101 3.8863626 -1.4145954
0.064038046 3.9029579 -1.4207517
0.017841728 4.2593741 -1.4392459
0.041907944 4.2876282 -1.4488494
0.067499161 4.2967768 -1.4520507
0.093750447 4.3664064 -1.4757394
0.1211649 4.4207006 -1.4943061
0.14976521 4.5146151 -1.5263178
0.18092206 4.6253519 -1.5640916
0.32697767 5.2705522 -1.784332
0.37733835 5.5349984 -1.8746051
0.47632977 5.9855585 -2.0289016
0.53445226 6.2469273 -2.1185343
-1.2359567 4.717895 -1.6479622
-1.2129896 4.7414565 -1.6537243
-1.1621442 4.6507306 -1.619792
-1.1269914 4.6301279 -1.6101885
-1.0946177 4.6125755 -1.6018654
-1.0624839 4.5948052 -1.5935423
-1.0252174 4.556664 -1.5781767
-0.98963511 4.5199223 -1.5634514
-0.96398056 4.5274005 -1.5640916
-1.0707557 5.3295569 -1.8368313
-1.0311427 5.2949009 -1.8227462
-0.95383805 5.2227201 -1.7939357
-0.92399412 5.2242341 -1.7926551
-0.88910085 5.2014542 -1.7830516
-0.85513777 5.1879435 -1.7766492
-0.82406563 5.1795397 -1.7721677
-0.79302871 5.182466 -1.7715274
-0.76611835 5.213325 -1.7804906
-0.74069995 5.2437887 -1.789454
-0.70677722 5.227437 -1.7824113
-0.67301202 5.2032347 -1.7728078
-0.64442587 5.2183075 -1.7766492
-0.27046219 4.1710725 -1.4123561
-0.24520536 4.1517549 -1.4053136
-0.22028089 4.1341777 -1.3989112
-0.19664605 4.139163 -1.4001917
-0.17224996 4.1269751 -1.3957101
-0.14680821 4.1014152 -1.3867468
-0.12289909 4.0927229 -1.3835456
-0.099784411 4.1123047 -1.389948
-0.074859068 4.0844083 -1.3803445
-0.051587716 4.0487652 -1.36818
-0.027432123 4.0300527 -1.3617777
-0.0035169655 4.0301447 -1.3617777
0.019027261 4.0376801 -1.3643386
0.042341709 4.0431876 -1.3662593
0.067698903 4.0826378 -1.3797042
0.019692568 4.3395896 -1.3541386
0.044064261 4.3527756 -1.3583088
0.070383698 4.3829808 -1.3678409
0.10162403 4.6573634 -1.4536288
0.13196117 4.7540107 -1.484012
0.16226473 4.8657804 -1.5191612
0.32081872 5.649797 -1.7658014
0.37115142 5.9489865 -1.8599299
0.47682619 6.4316602 -2.0124419
-1.2007183 4.8086667 -1.5465657
-1.162816 4.7845774 -1.536438
-1.1233548 4.7410355 -1.5203527
-1.0886922 4.7118917 -1.5090334
-1.0519385 4.6830611 -1.4977142
-1.0204641 4.6685252 -1.491161
-0.98522264 4.635108 -1.4786502
-0.95348972 4.6163988 -1.4709055
-0.92125434 4.5937347 -1.4619693
-0.90754294 4.664557 -1.4828205
-0.86075842 4.5685458 -1.45065
-0.83192134 4.5641818 -1.4476713
-0.80475801 4.5593562 -1.4446925
-0.7772007 4.5563874 -1.4423095
-0.74983919 4.5590353 -1.4417138
-0.52225298 5.2415566 -1.6436728
-0.49042788 5.2369599 -1.6412898
-0.45068076 5.1102123 -1.6007789
-0.41998661 5.0975013 -1.5960128
-0.38811436 5.0904531 -1.5930341
-0.32511076 4.6145773 -1.443501
-0.29600152 4.5897517 -1.4351605
-0.26889032 4.5799451 -1.431586
-0.24391451 4.5928144 -1.4351605
-0.23275463 4.9355502 -1.5417997
-0.12375641 4.1697874 -1.3017126
-0.099464357 4.1589794 -1.2981381
-0.074062154 4.1194091 -1.2856274
-0.050817415 4.100668 -1.2796699
-0.026778705 4.1467175 -1.2939678
-0.0021802583 4.1639862 -1.2993296
0.04737163 4.377562 -1.3660536
0.07472568 4.4134607 -1.3773729
0.020927779 4.44098 -1.2734445
0.04563145 4.4311814 -1.2706882
0.071707226 4.417377 -1.2668293
0.097190432 4.4188128 -1.2673806
0.12362505 4.4258451 -1.2695856
0.26088926 5.7674403 -1.655478
0.30526754 5.984725 -1.7183232
-1.2140685 5.1278753 -1.511044
-1.1624746 5.0392432 -1.482929
-1.1190782 4.9860253 -1.4652882
-1.0776258 4.9341626 -1.4481987
-1.0356102 4.8763475 -1.4294553
-0.99701655 4.8313942 -1.4145709
-0.96124172 4.7974706 -1.4029942
-0.92542607 4.7653446 -1.3919686
-0.88789403 4.7216277 -1.3776355
-0.85366637 4.6927667 -1.3677126
-0.82777739 4.6993546 -1.3682638
-0.7955358 4.6737204 -1.3594434
-0.76062649 4.6347241 -1.3467641
-0.73503035 4.640799 -1.3473154
-0.70082057 4.6013651 -1.3346361
-0.48541269 5.1931691 -1.4956083
-0.45505533 5.1804781 -1.4911981
-0.42580009 5.1791067 -1.4900955
-0.39357167 5.173943 -1.4878905
-0.36349598 5.1722884 -1.4867879
-0.33329037 5.1820288 -1.488993
-0.30400038 5.1934586 -1.4917494
-0.27550134 5.2220011 -1.4994673
-0.20459625 4.3708773 -1.2547013
-0.15192078 4.3287802 -1.2420219
-0.12574641 4.2873058 -1.2298939
-0.10096077 4.2841153 -1.2287914
-0.075909458 4.3057833 -1.2348554
-0.052740145 4.3791909 -1.2558038
-0.027152022 4.4447913 -1.2745471
0.075901225 4.3923101 -1.2596627
-1.0910809 5.296556 -1.4156756
-1.0355134 5.1775351 -1.3822464
-0.98599392 5.0867171 -1.3564148
-0.94239086 5.0162501 -1.3361547
-0.90499657 4.9798746 -1.3250116
-0.86342204 4.9067249 -1.304245
-0.82866061 4.8734679 -1.2941149
-0.79409236 4.8439317 -1.2849978
-0.75825876 4.792871 -1.2703093
-0.72485727 4.7647691 -1.2616987
-0.69209582 4.7383547 -1.2535946
-0.66131818 4.7114897 -1.2454907
-0.62999982 4.6904025 -1.2389061
-0.60075611 4.676682 -1.2343476
-0.5756942 4.6954279 -1.2383996
-0.55073375 4.7237444 -1.2449841
-0.52519619 4.7344389 -1.2470101
-0.54918414 5.2339253 -1.3776879
-0.48740584 5.23421 -1.3761684
-0.45698464 5.2233582 -1.3726228
-0.42717347 5.2181158 -1.3705969
-0.39543614 5.2225571 -1.3711034
-0.3656199 5.2286081 -1.3721163
-0.33051065 5.1669674 -1.3554018
-0.20747848 4.4490767 -1.1659697
-0.18090238 4.4269996 -1.1598916
-0.15510166 4.4415307 -1.1634371
-0.13025087 4.4674921 -1.1700217
-0.10592056 4.5281305 -1.1857233
-0.9125337 5.3780966 -1.2925152
-0.86081117 5.2624197 -1.2634648
-0.81471819 5.161418 -1.2381033
-0.77239472 5.0891981 -1.2196585
-0.73320228 5.0320673 -1.2049026
-0.69861048 4.9898281 -1.1938359
-0.66123629 4.9360189 -1.1800023
-0.62636667 4.8895569 -1.1680132
-0.59772229 4.8892198 -1.167091
-0.56550211 4.8577862 -1.1587908
-0.53386354 4.8202486 -1.1491073
-0.5018037 4.7904277 -1.1412684
-0.47228864 4.7738719 -1.1366571
-0.44089004 4.7436485 -1.1288182
-0.38027114 4.6551738 -1.1066844
-0.35593203 4.7117462 -1.1195958
-0.327299 4.6923628 -1.1145234
-0.29771388 4.6670322 -1.1080678
-0.26925105 4.6414695 -1.1016121
-0.24220924 4.6371126 -1.1002288
-0.2153178 4.6520767 -1.1034566
-0.1902535 4.6960192 -1.1136012
-0.74379277 5.5670557 -1.1938289
-0.69188482 5.4160051 -1.1605631
-0.6467132 5.3053269 -1.1360295
-0.60599732 5.2215176 -1.1173174
-0.56823868 5.1470413 -1.1006845
-0.53037298 5.080277 -1.0857148
-0.49668989 5.0384693 -1.0761509
-0.46317515 5.0023689 -1.0678345
-0.43150097 4.9620008 -1.0586864
-0.40029228 4.9214368 -1.0495383
-0.36802143 4.8945284 -1.0433009
-0.33752251 4.8633895 -1.0362319
-0.30915225 4.8731165 -1.0378952
-0.28321975 4.9119239 -1.0457958
-0.25695181 4.9525471 -1.0541123
-0.1797839 5.25349 -1.1173174
-0.15369667 5.4011011 -1.1485041
-0.5896554 6.0029826 -1.1364635
-0.53145754 5.7617369 -1.0901755
-0.48451558 5.5942616 -1.0579591
-0.44358626 5.4773812 -1.0353705
-0.40351814 5.3917913 -1.0187068
-0.36812466 5.3312821 -1.006857
-0.3383382 5.3627954 -1.0124117
-0.31351769 5.470614 -1.0324081
-0.28584787 5.546916 -1.0464796
-0.25838751 5.6466384 -1.0649948
