# .PCD v0.7 - Point Cloud Data file format
VERSION 0.7
FIELDS x y z
SIZE 4 4 4
TYPE F F F
COUNT 1 1 1
WIDTH 1496
HEIGHT 1
VIEWPOINT 0 0 0 1 0 0 0
POINTS 1496
DATA ascii
-2.523201 2.828995 -0.53275466
-2.4924581 2.8271389 -0.52969283
-2.4652305 2.8299325 -0.52746606
-2.4217525 2.8125668 -0.52162081
-2.1996818 2.5855315 -0.47708538
-2.1724582 2.5826204 -0.47430193
-2.1482329 2.5848043 -0.47235352
-2.1320529 2.5956037 -0.47207516
-2.2700768 2.8304803 -0.50993025
-2.2463555 2.8341951 -0.50826019
-2.2170546 2.8295481 -0.50519836
-2.1917391 2.8316913 -0.50324994
-2.1669712 2.8332555 -0.50130153
-2.1417632 2.8350027 -0.49935308
-2.1171062 2.8361816 -0.49740466
-2.0925071 2.8371706 -0.49545625
-2.0679669 2.837971 -0.4935078
-2.0434873 2.838583 -0.49155939
-2.0174265 2.8377457 -0.48933262
-1.9953575 2.8412142 -0.48794088
-1.5467886 2.3440471 -0.39469492
-1.5246119 2.3396425 -0.39246815
-1.5032016 2.3369884 -0.39051971
-1.4844075 2.3372483 -0.389128
-1.4642007 2.335947 -0.38745791
-1.4469618 2.3373523 -0.38634452
-1.4342943 2.3451469 -0.38634452
-1.4174857 2.3507204 -0.38578784
-1.4029101 2.3571436 -0.38550949
-1.3883077 2.3634768 -0.38523114
1.0513008 3.1005876 -1.7408005
1.0588028 3.0662916 -1.7248385
1.0670701 3.0334892 -1.7098154
1.0808814 3.0154674 -1.7032428
1.0952854 3.0027478 -1.6994871
1.1106248 2.989574 -1.6957313
1.1265761 2.9798241 -1.6938534
0.24146436 3.3603773 -0.39398319
0.24297591 3.1291928 -0.36703622
0.25756776 3.0801866 -0.36146098
0.27318081 3.054909 -0.35867336
0.28926462 3.0374649 -0.35681495
0.30515659 3.0199373 -0.35495654
0.32106739 3.0043032 -0.35333043
0.33844391 2.9983971 -0.35286582
0.3550052 2.9904802 -0.35216892
0.37176123 2.9804363 -0.35123971
0.38866383 2.9762759 -0.3510074
0.40474388 2.9701223 -0.35054281
0.42264161 2.9696348 -0.35077512
0.44032082 2.9710813 -0.35123971
0.45794371 2.9684162 -0.35123971
0.47482908 2.9677737 -0.35147202
0.49308267 2.968823 -0.35193661
0.51152056 2.9737647 -0.35286582
0.52968371 2.9766364 -0.35356274
0.54805726 2.9773481 -0.35402733
0.56578881 2.9800956 -0.35472423
0.5849914 2.9844832 -0.35565343
0.60584056 2.9965358 -0.35751185
0.62580305 3.0086641 -0.35937026
0.64739025 3.0223792 -0.36146098
0.67076844 3.0457599 -0.36471319
0.69521576 3.0749047 -0.36866233
-2.3580909 2.8393257 -0.43161601
-2.3303556 2.8390412 -0.42952529
-2.3027022 2.8385317 -0.42743456
-2.2659407 2.8273449 -0.42371777
-2.0658507 2.6083248 -0.38910484
-2.031657 2.5947967 -0.38538802
-2.0125775 2.6020932 -0.38469112
-1.9903196 2.6041718 -0.38329732
-1.9867998 2.6317909 -0.38562033
-2.0096159 2.6941433 -0.39305398
-2.0486088 2.8477931 -0.41024429
-2.024771 2.850183 -0.40885046
-1.999193 2.8487895 -0.40699205
-1.9770935 2.8520937 -0.40583053
-1.9511582 2.8506618 -0.40397215
-1.9269195 2.8503325 -0.40234601
-1.9038526 2.8514709 -0.40095222
-1.8808367 2.8524387 -0.3995584
-1.8567892 2.8515716 -0.39793229
-1.8333908 2.8525131 -0.3965385
-1.5061319 2.4645374 -0.33776623
-1.4198794 2.35655 -0.32173744
-1.3991756 2.3527372 -0.32011133
-1.3815796 2.353904 -0.31918213
-1.3606197 2.3500273 -0.31755602
-1.3455021 2.3541405 -0.31709141
-1.3246804 2.3499701 -0.3154653
-1.3072618 2.3506165 -0.31453609
-1.2956126 2.3615899 -0.31500071
-1.282521 2.3709838 -0.31523299
-1.271649 2.383589 -0.31592989
0.99676889 3.1787491 -1.6733172
0.98783249 3.0878439 -1.628432
0.99619782 3.0550921 -1.6140687
1.0086682 3.0321684 -1.6050918
1.0208524 3.0073342 -1.5952171
1.0358807 2.9965184 -1.5925239
1.050154 2.9820738 -1.5880355
1.0678314 2.9757895 -1.5880355
1.0825955 2.9647429 -1.5853423
1.0995464 2.9565914 -1.5844446
1.1171895 2.9518809 -1.5853423
1.1354569 2.9487331 -1.5871377
1.1522828 2.9402792 -1.5862401
1.1738303 2.9452155 -1.5925239
1.190774 2.9384058 -1.5925239
1.2086953 2.9368782 -1.5952171
1.2300644 2.9376826 -1.5997056
1.2509754 2.9385538 -1.604194
0.19721328 3.5949597 -0.33589724
0.19565547 3.2360122 -0.30245614
0.22258255 3.0825534 -0.28833658
0.23862959 3.0593817 -0.28629294
0.2556136 3.0440211 -0.28499246
0.27189517 3.0286148 -0.28369197
0.28800777 3.0131223 -0.28239149
0.30455366 3.0034888 -0.28164834
0.32121047 2.9957449 -0.281091
0.33830968 2.98785 -0.28053364
0.35527733 2.9838746 -0.28034785
0.37248328 2.9777617 -0.27997628
0.39066187 2.9834652 -0.28071943
0.40758806 2.9832096 -0.28090522
0.4244397 2.9748244 -0.28034785
0.44302943 2.9821792 -0.28127676
0.46071813 2.9794977 -0.28127676
0.4776668 2.9788442 -0.28146255
0.49631599 2.9818504 -0.28201991
0.5151732 2.9887543 -0.28294882
0.53447586 2.9975002 -0.28406352
0.55369866 3.0021091 -0.28480667
0.57343382 3.0146201 -0.28629294
0.5947662 3.0287504 -0.287965
0.61668169 3.0446849 -0.28982285
0.63814491 3.0626376 -0.29186645
0.6659162 3.1035788 -0.29613948
-2.0774705 2.6552179 -0.31453207
-2.0568066 2.6611967 -0.31378895
-2.0511143 2.6856594 -0.31527522
-1.9295362 2.6200304 -0.30357084
-1.9015263 2.6133876 -0.3015272
-1.8794689 2.6145947 -0.30041251
-1.8616152 2.6224539 -0.30004093
-1.9608133 2.7961748 -0.31861934
-1.9798275 2.8581681 -0.32437864
-1.9572111 2.8616478 -0.3234497
-1.932894 2.8613222 -0.32214922
-1.9064354 2.8574986 -0.32047716
-1.8855634 2.8617802 -0.31973404
-1.8614473 2.8609085 -0.31843355
-1.837981 2.861851 -0.31731886
-1.8140025 2.8606172 -0.31601834
-1.7927697 2.8645792 -0.31527522
-1.772555 2.8677716 -0.31453207
-1.7487105 2.8637238 -0.31304583
-1.7255473 2.8661244 -0.31211689
-1.7039248 2.8674557 -0.31118798
-1.3173947 2.3707845 -0.25303763
-1.3008466 2.3730941 -0.25248027
-1.2772732 2.3632531 -0.25062242
-1.2617673 2.3670559 -0.25025088
-1.2425537 2.363708 -0.24913616
-1.2298355 2.3725934 -0.24932195
-1.2093934 2.3674359 -0.24802147
-1.1943603 2.3705966 -0.24764989
-1.1829282 2.3829935 -0.24820724
-1.170934 2.3933446 -0.24857882
-1.1631837 2.4126053 -0.2498793
0.99509341 3.447582 -1.6984898
0.94130605 3.1921117 -1.5752745
0.93206632 3.0930047 -1.5290686
0.93763971 3.0478456 -1.5093884
0.94922209 3.0234227 -1.4999762
0.96386284 3.0092976 -1.4956979
0.97728872 2.9935567 -1.4905639
0.99332196 2.9825594 -1.4879968
1.009196 2.9695897 -1.4845742
1.0257655 2.963907 -1.4845742
1.0416172 2.95454 -1.4828628
1.0603536 2.9517095 -1.4845742
1.0774431 2.9474392 -1.4854299
1.0955452 2.942688 -1.4862856
1.1137565 2.9397101 -1.4879968
1.1326201 2.9383068 -1.4905639
1.1533371 2.9399483 -1.4948422
1.1722604 2.9382939 -1.4974091
1.1925619 2.9398692 -1.5016874
1.212582 2.9434025 -1.5068214
1.2347322 2.9459436 -1.5119554
1.2585697 2.953532 -1.5196563
1.2813057 2.9595056 -1.5265017
1.3046695 2.9650869 -1.533347
1.328582 2.9742594 -1.5419036
1.353905 2.9846668 -1.5513159
-5.4441571 2.169796 -2.7740574
-5.2265868 2.1531765 -2.6756563
-5.1607409 2.1609015 -2.6482749
-5.1262045 2.1822829 -2.6371515
-5.0654345 2.1909597 -2.6123371
0.14909276 3.442359 -0.24093886
0.15493001 3.1564829 -0.22098851
0.17036913 3.0957446 -0.21680312
0.18644872 3.0748301 -0.215408
0.203899 3.0537269 -0.21401286
0.21979867 3.0366211 -0.21289676
0.23650713 3.0253594 -0.2121992
0.25345194 3.0119741 -0.21136211
0.26990166 3.0005288 -0.21066456
0.28755924 3.0028968 -0.21094358
0.30424497 2.9952359 -0.21052504
0.32158682 2.9894104 -0.21024601
0.33841991 2.9795198 -0.20968796
0.35652131 2.9854455 -0.21024601
0.37472758 2.9872365 -0.21052504
0.39140707 2.9810724 -0.21024601
0.40859187 2.9827933 -0.21052504
0.42656732 2.9822912 -0.21066456
0.44403076 2.9817584 -0.21080406
0.46293923 2.9869573 -0.21136211
0.48088056 2.9922044 -0.21192017
0.49961287 2.9952021 -0.2123387
0.51923275 3.006037 -0.21331529
0.54004663 3.0226369 -0.21471043
0.56051159 3.0331123 -0.21568702
0.58155143 3.0514929 -0.21722166
0.60658139 3.083225 -0.2197329
-2.0572112 2.8629122 -0.24651937
-2.02864 2.8587985 -0.24512425
-2.0041246 2.8589993 -0.24414766
-1.9524153 2.8196459 -0.23982276
-1.7915169 2.6203668 -0.2219651
-1.7708124 2.6223745 -0.22126754
-1.7479304 2.6209111 -0.22029094
-1.7317088 2.6292686 -0.22015142
-1.8307549 2.814811 -0.23480029
-1.8431212 2.8709562 -0.23856714
-1.8190781 2.8697286 -0.23759055
-1.795668 2.8703241 -0.23675348
-1.770171 2.8650324 -0.23549786
-1.7504859 2.8677564 -0.2349398
-1.7272891 2.870151 -0.23424225
-1.7035973 2.8680446 -0.23326565
-1.6850324 2.8743665 -0.23298663
-1.6629522 2.8756795 -0.23228906
-1.6409308 2.874526 -0.23145197
-1.6179714 2.8737817 -0.2306149
-1.6013929 2.8830528 -0.2306149
-1.5761328 2.8764811 -0.22935928
-1.215809 2.3810205 -0.18694735
-1.1962104 2.3753004 -0.18597075
-1.1776601 2.373421 -0.1852732
-1.1604648 2.3729951 -0.18471514
-1.1415813 2.3688557 -0.18387806
-1.1232268 2.3665762 -0.1831805
-1.1104228 2.3748136 -0.18332002
-1.095892 2.3793573 -0.1831805
-1.0842351 2.3890746 -0.18345952
-1.0684116 2.3918231 -0.1831805
-1.0606226 2.4127326 -0.18429661
-1.0403699 2.4041529 -0.1831805
0.94635504 3.5049152 -1.6163714
0.88293219 3.1945734 -1.4756405
0.87249857 3.0874577 -1.428459
0.88012677 3.0472744 -1.4121896
0.89249223 3.0246308 -1.4040549
0.90726006 3.0087857 -1.3991741
0.92134905 2.9930329 -1.3942932
0.93692952 2.9824474 -1.3918527
0.95241868 2.971782 -1.3894124
0.97065431 2.9697206 -1.3910394
0.98658717 2.960614 -1.3894124
1.0052422 2.9562619 -1.3902259
1.0216541 2.9486966 -1.3894124
1.0404446 2.9479322 -1.3918527
1.0591563 2.9451449 -1.3934797
1.0775858 2.9462349 -1.3967336
1.0963256 2.9432127 -1.3983606
1.1158495 2.9436836 -1.4016144
1.13673 2.9474361 -1.4064953
1.1575381 2.9491427 -1.4105626
1.1785686 2.9526083 -1.4154435
1.2001933 2.9557197 -1.4203243
1.2205267 2.9612195 -1.4260187
1.2470715 2.973928 -1.4357804
1.2695159 2.9763381 -1.4406612
1.2989877 2.9974766 -1.4544902
1.3263258 3.0114527 -1.4650654
1.3545275 3.0309219 -1.478081
1.4006544 3.0862935 -1.5089929
-6.459548 2.4022844 -3.0684211
-6.3717051 2.4127514 -3.0334418
-5.6808438 2.1886384 -2.7104931
-6.7359886 2.6411614 -3.2213542
-6.6188369 2.6393092 -3.1725459
-6.5154786 2.6416883 -3.1302452
-6.3312645 2.6523213 -3.0562191
-6.2296844 2.6533313 -3.0147319
-6.1354885 2.6550629 -2.9764988
-6.0498452 2.6594753 -2.942333
-5.9588871 2.6617954 -2.9057267
-5.8757024 2.6641004 -2.8723741
0.098921135 3.7526166 -0.17506053
0.105779 3.292721 -0.15363215
0.11802086 3.1003826 -0.14468813
0.13411473 3.071732 -0.14338379
0.15042338 3.0429733 -0.14207946
0.16726273 3.0200846 -0.14105462
0.18339767 3.0071385 -0.14049561
0.20122851 2.9979887 -0.14012295
0.21738951 2.988848 -0.13975029
0.23397474 2.9795794 -0.13937762
0.25148347 2.9761479 -0.13928445
0.2684409 2.9726603 -0.13919128
0.28517538 2.9670875 -0.13900495
0.30225977 2.9653959 -0.13900495
0.31912008 2.9616194 -0.13891178
0.3373664 2.9656286 -0.13919128
0.35372978 2.9576855 -0.13891178
0.37202173 2.9614811 -0.13919128
0.38985366 2.9652314 -0.13947079
0.40695143 2.9669666 -0.13965712
0.42511693 2.9684546 -0.13984345
0.44397449 2.977813 -0.14040245
0.46286261 2.9830227 -0.14077511
0.48173708 2.9941983 -0.14142729
0.50245786 3.0090218 -0.1422658
0.52216291 3.0198584 -0.14291796
0.54411972 3.042367 -0.14412913
0.57052177 3.0842681 -0.14627196
-1.9242674 2.8517699 -0.16043332
-1.9000553 2.8511682 -0.15978116
-1.8770124 2.8520513 -0.15922216
-1.852934 2.8510888 -0.15856999
-1.7917552 2.7930896 -0.15475015
-1.6505635 2.6058955 -0.14384963
-1.6276579 2.6037858 -0.14319746
-1.6120408 2.6111357 -0.14310429
-1.5978897 2.6198194 -0.14310429
-1.6947041 2.8553419 -0.15484332
-1.6741914 2.85816 -0.15447065
-1.6502047 2.8559356 -0.15381849
-1.6292793 2.8564305 -0.15335265
-1.6083822 2.8590837 -0.15297998
-1.5860716 2.8578188 -0.15242098
-1.5647885 2.8581445 -0.15195514
-1.5449535 2.8621058 -0.15167564
-1.5237491 2.862139 -0.15120982
-1.5025959 2.8620234 -0.15074398
-1.4814947 2.8617592 -0.15027814
-1.4626708 2.866941 -0.15009181
-1.4412482 2.8643575 -0.14953281
-1.0898625 2.3684421 -0.12158275
-1.0642427 2.347199 -0.12018525
-1.0445962 2.3407021 -0.11953308
-1.0339013 2.3541765 -0.11990575
-1.0195323 2.3582585 -0.11981258
-1.0035863 2.3585763 -0.11953308
-0.98957258 2.3644903 -0.11953308
-0.97559047 2.3681328 -0.11943991
-0.96302062 2.3775837 -0.11962625
-0.95111191 2.3888249 -0.11990575
-0.94066995 2.4015405 -0.12027841
0.89490968 3.5522869 -1.5301291
0.82773864 3.2075553 -1.3836684
0.81979948 3.1028163 -1.3405011
0.82850462 3.0641947 -1.3258549
0.84125847 3.0396595 -1.3173757
0.85372669 3.0170062 -1.3096672
0.86903834 3.0049477 -1.3065838
0.88423944 2.9928133 -1.3035004
0.9030503 2.9910469 -1.3050421
0.91700101 2.9752145 -1.3004171
0.93522912 2.9734044 -1.3019587
0.95177525 2.9662113 -1.3011879
0.96890044 2.9626036 -1.3019587
0.98821586 2.9620538 -1.3042712
1.007481 2.9594557 -1.305813
1.0264118 2.9607575 -1.3088963
1.0440619 2.956537 -1.3096672
1.0640872 2.9572353 -1.3127506
1.0818559 2.9547122 -1.3142923
1.1045287 2.9620736 -1.320459
1.1241895 2.9625647 -1.3235424
1.1458867 2.9680922 -1.3289384
1.1675286 2.9715459 -1.3335634
1.190102 2.9784822 -1.3397301
1.2148777 2.9903858 -1.3482095
1.2394857 3.0042408 -1.3574597
1.2699567 3.0255413 -1.370564
1.2994778 3.0451102 -1.3828975
1.3441567 3.1002231 -1.4114188
-5.774056 2.1887465 -2.5792503
-5.7751288 2.2272787 -2.585417
-5.3215551 2.1597776 -2.3988724
-5.3124394 2.1917992 -2.4004142
-5.6611762 2.4521563 -2.5769379
-5.5726347 2.452018 -2.5430207
-5.5158672 2.4662116 -2.5237496
-5.8801236 2.6685798 -2.6971898
-5.8088779 2.6779294 -2.671752
-5.7231555 2.6784861 -2.6393764
-5.6459565 2.6821048 -2.6108551
-5.568439 2.6858962 -2.5823338
-5.4898891 2.6870933 -2.5530417
-5.4115124 2.6874754 -2.5237496
-5.3361425 2.6896372 -2.4959991
-5.2668085 2.6916831 -2.470561
-5.1999559 2.6965525 -2.4466648
-4.0131412 2.2309344 -1.9178646
-3.9519913 2.2268326 -1.8947393
-3.9066594 2.2319353 -1.8793223
-3.8617976 2.2359052 -1.8639054
-3.8217959 2.2422345 -1.850801
-3.7830441 2.2497809 -1.8384675
-3.7561922 2.2623048 -1.8315299
0.052608315 3.5046606 -0.081377044
0.065650485 3.1604664 -0.073392533
0.082375124 3.0840688 -0.071628511
0.099228062 3.0555654 -0.070978612
0.11689776 3.0429349 -0.070700079
0.13301168 3.0222592 -0.070235863
0.14972043 3.0074642 -0.069910914
0.16711928 2.9985373 -0.069725223
0.18337393 2.9895742 -0.06953954
0.20149806 2.9864035 -0.069493115
0.21759109 2.9772549 -0.069307432
0.23457792 2.973959 -0.069261007
0.25188342 2.9685299 -0.069168165
0.26915717 2.9690213 -0.06921459
0.28644493 2.9694121 -0.069261007
0.30394956 2.9716911 -0.069353856
0.32084525 2.9679034 -0.069307432
0.33890477 2.9699204 -0.069400273
0.35648084 2.9718897 -0.069493115
0.37435991 2.9717057 -0.06953954
0.3922534 2.9754472 -0.069678806
0.41049957 2.985095 -0.069957331
0.42962688 2.9925022 -0.070189439
0.44921955 3.0057983 -0.070560813
0.470121 3.0228367 -0.071025029
0.48954266 3.0359557 -0.071396403
0.51282978 3.0645499 -0.072139151
-1.7859074 2.8591595 -0.078266799
-1.7646621 2.8605807 -0.078034692
-1.7429159 2.8598423 -0.077756159
-1.7166743 2.8570259 -0.077384792
-1.650215 2.7825968 -0.07511013
-1.5341723 2.6212187 -0.070514396
-1.5085934 2.6129606 -0.07005018
-1.4939765 2.6213453 -0.07005018
-1.4774152 2.6284215 -0.070003755
-1.5563095 2.8065014 -0.074506648
-1.5679471 2.8662889 -0.075852878
-1.5471141 2.8685036 -0.075667188
-1.5258722 2.8685403 -0.07543508
-1.5046813 2.868428 -0.075202972
-1.4835424 2.8681669 -0.074970864
-1.4601401 2.8644502 -0.074645914
-1.4423231 2.8689876 -0.074553072
-1.4208355 2.8685374 -0.074320965
-1.3999048 2.8676891 -0.074088857
-1.3816315 2.8721008 -0.073996015
-1.3594275 2.8694074 -0.073717482
-1.3411871 2.8735659 -0.073624641
-1.0580244 2.4113903 -0.061137233
-0.99418277 2.377836 -0.059837427
-0.97479922 2.3685596 -0.059466057
-0.95922691 2.3705955 -0.059373211
-0.94144785 2.3669562 -0.059141103
-0.92529929 2.3647294 -0.058955416
-0.90981549 2.366446 -0.058862574
-0.89475721 2.3679061 -0.058769733
-0.88249624 2.3767691 -0.058862574
-0.87016279 2.3855693 -0.058955416
-0.85708284 2.3924239 -0.059001841
-0.84552354 2.4050128 -0.059187524
0.86379308 3.6914935 -1.4804177
0.78313649 3.2645082 -1.3109154
0.7720356 3.0600367 -1.2323477
0.78638422 3.042913 -1.2272555
0.79960829 3.0221241 -1.2207081
0.81602734 3.0138721 -1.2192532
0.83140981 3 -1.2156157
0.84562737 2.9844072 -1.2112509
0.862284 2.9776976 -1.2105235
0.87889141 2.9708955 -1.209796
0.89812273 2.9709775 -1.2119784
0.91576868 2.9675357 -1.2127059
0.93284518 2.9622121 -1.2127059
0.95160019 2.9621112 -1.2148883
0.969868 2.9620619 -1.2170707
0.98801827 2.9580216 -1.2177982
1.0084733 2.9589846 -1.2207081
1.0286485 2.9638662 -1.225073
1.0475649 2.9631617 -1.2272555
1.0670242 2.9621515 -1.2294378
1.0861158 2.9631429 -1.2323477
1.1108471 2.9758446 -1.24035
1.131276 2.9781051 -1.2439874
1.1571404 2.9941306 -1.2534447
1.1817063 3.0045488 -1.2607194
1.2079858 3.0201797 -1.2701766
1.238695 3.0459616 -1.2839987
1.2729354 3.0822635 -1.3021857
-5.3920307 2.190573 -2.2726414
-5.5884848 2.6979702 -2.4232292
-5.4841824 2.6866732 -2.3846729
-4.9881535 2.4793971 -2.1751592
-4.9251161 2.4846191 -2.1540625
-4.8813071 2.4968162 -2.1409678
-4.9093976 2.5480521 -2.1598823
-5.0797615 2.7123401 -2.2486346
-5.0121026 2.7122953 -2.2253554
-4.9501901 2.7168915 -2.2049859
-4.887248 2.7190902 -2.1838892
-4.827692 2.7224853 -2.164247
-4.7629328 2.7233431 -2.1424227
-4.7036457 2.7255116 -2.1227808
-4.6412807 2.7252014 -2.1016841
-4.5850048 2.7288747 -2.083497
-3.6931698 2.2560904 -1.6899315
-3.5880103 2.2490098 -1.6535575
-3.5368581 2.2462907 -1.636098
-3.4980102 2.24827 -1.6237309
-3.4451854 2.244175 -1.605544
-3.4115932 2.2512403 -1.5960867
-3.3974175 2.2692242 -1.5953593
-3.3916073 2.2945645 -1.5989968
0.012227051 3.3359776 0
0.046796411 3.0816448 0
0.063958153 3.0533302 0
0.08164575 3.0369027 0
0.098678753 3.0223897 0
0.11614939 3.0097597 0
0.13260402 3.0010719 0
0.14968707 2.9962633 0
0.16701794 2.9873347 0
0.18345408 2.982363 0
0.20153378 2.9791913 0
0.21787724 2.9740298 0
0.23531795 2.9767132 0
0.25297788 2.9752643 0
0.26992896 2.9717662 0
0.28742531 2.9741437 0
0.30495799 2.976418 0
0.32283056 2.9765444 0
0.34139773 2.9825244 0
0.35928676 2.9864657 0
0.37850636 2.9961865 0
0.39706725 3.0038705 0
0.41547671 3.0134935 0
0.43705556 3.0367098 0
0.45779783 3.0558994 0
0.48239258 3.0946279 0
-1.6554993 2.8685651 0
-1.6345025 2.8690774 0
-1.6145093 2.8734953 0
-1.5911452 2.870502 0
-1.5246905 2.7883692 0
-1.4151056 2.6248429 0
-1.3971474 2.6276519 0
-1.3764175 2.6250277 0
-1.3603572 2.6311352 0
-1.433702 2.8137987 0
-1.4440069 2.8735867 0
-1.4233798 2.8749354 0
-1.4006585 2.8705037 0
-1.3806356 2.8713136 0
-1.283039 2.8790476 0
-1.2627188 2.8792841 0
-1.242151 2.8773282 0
-1.2224299 2.8770716 0
-1.2053356 2.884275 0
-1.1861646 2.8835633 0
-0.91225046 2.4154758 0
-0.88371074 2.3813138 0
-0.8679257 2.3807271 0
-0.8515026 2.3781545 0
-0.83339745 2.3718441 0
-0.81972283 2.3766048 0
-0.80368274 2.3757436 0
-0.79103196 2.3820932 0
-0.77564442 2.3829417 0
-0.76373106 2.3930857 0
-0.75112945 2.4012623 0
-0.73979563 2.4152389 0
0.70416522 3.0894098 -1.1532919
0.71702033 3.0594335 -1.1437154
0.72882754 3.0334525 -1.1355069
0.74276644 3.0126514 -1.1293505
0.75636005 2.9957008 -1.1245623
0.77218974 2.9858363 -1.1225101
0.78841197 2.9777057 -1.121142
0.8045662 2.9694874 -1.119774
0.82167095 2.9628499 -1.11909
0.83820933 2.95626 -1.1184058
0.85469913 2.949578 -1.1177218
0.87380701 2.9518149 -1.120458
0.89185214 2.9483767 -1.121142
0.90937316 2.9449868 -1.1218261
0.92857921 2.9468703 -1.1245623
0.94726187 2.9468408 -1.1266143
0.96656042 2.9484797 -1.1293505
0.98642403 2.9498215 -1.1320866
1.0086733 2.9561918 -1.1368749
1.0282521 2.9593885 -1.1402951
1.0490421 2.9640474 -1.1443994
1.0723504 2.9736814 -1.1505557
1.0960633 2.9870541 -1.1580802
1.1196902 2.9963417 -1.1642365
1.1442772 3.0091662 -1.171761
1.1731174 3.0323234 -1.1833897
1.2083031 3.0690269 -1.2004907
-4.9756589 2.5461733 -2.0343359
-5.0825133 2.7149494 -2.0972676
-5.0127311 2.7137666 -2.0746942
-4.9504118 2.7181375 -2.055541
-4.4830823 2.4952514 -1.86743
-4.4146199 2.4905567 -1.8448566
-4.3655043 2.4971135 -1.8304918
-4.3461719 2.5193877 -1.8284397
-4.5715561 2.721951 -1.9365181
-4.5257034 2.7290018 -1.9235213
-4.4688621 2.732089 -1.9064202
-4.4115095 2.7320549 -1.8886353
-4.3543072 2.7314517 -1.8708502
-4.3015413 2.7340555 -1.8551172
-4.2440085 2.7298379 -1.8366482
-3.3080201 2.2675936 -1.459742
-3.2582433 2.2603238 -1.443325
-3.2124791 2.2569306 -1.4289602
-3.1699336 2.2552536 -1.4159634
-3.1340158 2.256999 -1.4057028
-3.0997024 2.2595134 -1.3961263
-3.0726306 2.267823 -1.3899698
-3.0478699 2.2759523 -1.3844975
-3.0268147 2.2883317 -1.3810773
0.012440812 3.0991399 0.071953461
0.029346334 3.0570352 0.070978612
0.047269121 3.0428128 0.070653655
0.064495586 3.028497 0.070328705
0.082139209 3.0160687 0.07005018
0.099113397 3.0035553 0.069771647
0.1167794 2.9989183 0.069678806
0.13317078 2.9902294 0.069493115
0.15039097 2.9894128 0.069493115
0.16767851 2.9804826 0.069307432
0.18444541 2.9814951 0.069353856
0.20265478 2.9803128 0.069353856
0.21929674 2.9791346 0.069353856
0.23660986 2.9798152 0.069400273
0.25462836 2.9823432 0.069493115
0.27216423 2.9848096 0.069585964
0.28992999 2.9891629 0.069725223
0.3075504 2.9914215 0.069818072
0.32563829 2.9975514 0.070003755
0.34433123 3.0035121 0.070189439
0.36305943 3.0133898 0.070467971
0.38319325 3.0290351 0.070885763
0.40299407 3.0446174 0.071303561
0.42464042 3.0759907 0.072092727
-1.5318747 2.8834648 0.075806454
-1.5115302 2.8851554 0.07562077
-1.4893819 2.8831546 0.075342238
-1.466804 2.8812511 0.075063713
-1.3789175 2.7464471 0.071349978
-1.3023115 2.6327131 0.068193316
-1.1732217 2.4065268 0.062158506
-1.1550125 2.4042327 0.061926398
-1.1424356 2.414659 0.062019244
-1.3239398 2.8837531 0.073671065
-1.304517 2.8838153 0.073485374
-1.2857548 2.8878524 0.073392533
-1.2661881 2.8899372 0.073253267
-1.247147 2.891674 0.073114
-1.2257839 2.8877661 0.072835475
-1.2070855 2.8912988 0.072742626
-1.1863587 2.886899 0.072464101
-1.1669596 2.8883266 0.072324835
-1.1475855 2.8896258 0.072185569
-1.1299738 2.8922651 0.072092727
-1.1099248 2.891453 0.071907043
-1.0925472 2.895927 0.071860619
-1.0723748 2.8927975 0.071628511
-0.79691166 2.4026031 0.058769733
-0.7770766 2.3901763 0.058351938
-0.76147568 2.3888972 0.058212671
-0.74651152 2.3894265 0.05811983
-0.72997963 2.3861663 0.057934143
-0.71622431 2.390331 0.057934143
-0.70398945 2.3981309 0.058026984
-0.69168979 2.4058685 0.05811983
-0.67643964 2.408124 0.058073409
-0.66319627 2.415952 0.058166251
-0.65082496 2.425525 0.058305517
0.018482182 4.0728607 0.09456078
0.038769037 3.7647858 0.087411851
0.056714449 3.4566031 0.080262929
0.77322412 3.9050672 -1.3451316
0.65771717 3.1319265 -1.0813552
0.6634776 3.0687056 -1.0608677
0.67497492 3.0370889 -1.0512642
0.68813407 3.0166459 -1.0455021
0.70395279 3.001318 -1.0416607
0.71893239 2.9899704 -1.0390997
0.734393 2.9764538 -1.0358986
0.75013041 2.9666638 -1.0339779
0.76767969 2.9641285 -1.0346181
0.78376782 2.9559948 -1.0333376
0.80177236 2.9550889 -1.0346181
0.81878698 2.9484534 -1.0339779
0.83730763 2.9491568 -1.0358986
0.85533559 2.9479249 -1.037179
0.87230009 2.9429495 -1.037179
0.89249462 2.9467885 -1.0403802
0.91001165 2.9434094 -1.0410204
0.93036979 2.9489613 -1.0448618
0.95024145 2.9525719 -1.048063
0.97026002 2.9580212 -1.0519044
0.98959976 2.9576018 -1.0538251
1.0125456 2.9658468 -1.058947
1.0340716 2.974463 -1.0640689
1.0556134 2.9809604 -1.0685505
1.0816439 2.9978135 -1.0768735
1.1088182 3.0201845 -1.0871173
1.1399919 3.0490468 -1.0999219
-4.6031036 2.7429118 -1.8105817
-4.5390453 2.7392077 -1.7913747
-4.4467397 2.7196307 -1.7612836
-4.0702081 2.5216694 -1.6178713
-3.9978399 2.5088127 -1.5948229
-3.9525027 2.5131755 -1.5826584
-3.5420945 2.2792258 -1.4232402
-4.0128622 2.751781 -1.6441208
-3.9694116 2.7547052 -1.6325966
-3.9235413 2.7575111 -1.6204321
-3.8731475 2.7565742 -1.6063471
-3.827997 2.7577927 -1.5941826
-3.784493 2.7596996 -1.5826584
-2.9360042 2.2741172 -1.2548586
-2.8956189 2.2704551 -1.2433344
-2.8617139 2.2706072 -1.2343711
-2.8312557 2.2723229 -1.2266883
-2.8084996 2.2824056 -1.2228469
-2.7762816 2.2828989 -1.2145239
-2.7630873 2.2988513 -1.2145239
-2.7425532 2.3086262 -1.2113227
0.013223909 3.0306776 0.14133412
0.030050736 3.0205677 0.14086829
0.047815867 3.0103483 0.14040245
0.064937167 3.0000362 0.13993663
0.082628325 2.9956038 0.13975029
0.09961395 2.9870913 0.13937762
0.11718098 2.982455 0.13919128
0.13365707 2.9777625 0.13900495
0.15100759 2.9809339 0.13919128
0.16869405 2.9799852 0.13919128
0.18533471 2.9789965 0.13919128
0.20352879 2.977809 0.13919128
0.22059883 2.9826028 0.13947079
0.2380913 2.985266 0.13965712
0.2556313 2.9818099 0.13956395
0.2737115 2.9902358 0.14002979
0.29170364 2.9965634 0.14040245
0.30998275 3.00477 0.14086829
0.32944831 3.0227954 0.14179996
0.34897771 3.0346806 0.14245212
0.36908668 3.0544376 0.14347696
0.39349127 3.1017423 0.14580613
-1.2003624 2.3928945 0.12484359
-1.1870269 2.4017665 0.12493675
-1.1749238 2.4121556 0.12512308
-1.3443331 2.8868768 0.14850797
-1.2385606 2.7002687 0.13853912
-1.1897266 2.6325018 0.13471928
-1.1748961 2.6413407 0.13481244
-1.1567981 2.6427755 0.13453294
-1.1415577 2.6493945 0.13453294
-1.2035534 2.8856714 0.14580613
-1.1836244 2.8831077 0.14534029
-1.1649995 2.8863754 0.14515397
-1.144904 2.8858097 0.14478129
-1.1280425 2.8902979 0.14468813
-1.1080101 2.8894794 0.14431547
-1.0899405 2.8920741 0.14412913
-1.0697966 2.8889363 0.14366329
-1.0524569 2.8931723 0.14357013
-1.0337595 2.8935421 0.14329062
-1.013927 2.8920841 0.14291796
-0.99595279 2.8940978 0.14273162
-0.97556704 2.8904922 0.1422658
-0.95878005 2.8939993 0.14217262
-0.70370233 2.4002526 0.1166449
-0.6869778 2.3926239 0.1160859
-0.67073059 2.391005 0.1158064
-0.65388942 2.3853095 0.11534057
-0.64065737 2.3909657 0.11543374
-0.62535799 2.3888178 0.11515424
-0.61257869 2.3962512 0.11534057
-0.59870201 2.3976967 0.1152474
-0.58451641 2.4032505 0.11534057
-0.57158697 2.410465 0.1155269
-0.55994302 2.42345 0.11599274
-0.02597001 3.9156582 0.18260704
-0.0024965981 3.5761127 0.16676867
0.01625572 3.3263452 0.15512282
0.033584539 3.154393 0.14711046
0.051848713 3.0942025 0.14431547
0.71780664 3.981427 -1.2623931
0.612266 3.1854403 -1.0121784
0.61072606 3.0787513 -0.97941214
0.62324595 3.0470157 -0.97047591
0.63593054 3.0229359 -0.96392268
0.65143299 3.0079134 -0.96034819
0.66750187 2.9985206 -0.95856094
0.68211198 2.9854395 -0.9555822
0.69858968 2.9737828 -0.95319921
0.71518743 2.9698348 -0.95319921
0.7318821 2.9618316 -0.95200771
0.74892879 2.957567 -0.95200771
0.76595062 2.9532046 -0.95200771
0.78341168 2.9525714 -0.95319921
0.80191982 2.9515553 -0.9543907
0.82044351 2.9504235 -0.9555822
0.83847415 2.9513049 -0.95736945
0.85810333 2.9536109 -0.95975244
0.8767302 2.9541106 -0.96153969
0.89646089 2.9561641 -0.96392268
0.91516596 2.9564235 -0.96570992
0.93562883 2.9620268 -0.96928442
0.95625377 2.9694762 -0.97345465
0.97870189 2.9802444 -0.97881639
1.0012212 2.988867 -0.98358244
1.0268701 3.0043743 -0.99073142
1.0505368 3.0184267 -0.99728465
1.0806628 3.0483155 -1.0091996
-3.5774717 2.2764683 -1.3231596
-3.5731285 2.3009593 -1.3261384
-4.2273192 2.7589097 -1.5751617
-4.1726503 2.7586761 -1.5608636
-4.1222706 2.7585776 -1.5477571
-3.9888799 2.7037218 -1.5036718
-3.6694241 2.5181553 -1.388692
-3.6317809 2.5222738 -1.3797559
-3.6011331 2.5327971 -1.3737984
-3.8426299 2.7368758 -1.472097
-3.8360951 2.7656615 -1.4756715
-3.7800047 2.7584484 -1.460182
-3.7359297 2.7604084 -1.4494585
-3.6929295 2.7606544 -1.438735
-3.6536474 2.7652371 -1.4297987
-3.6083796 2.7648067 -1.4184796
-3.5732651 2.7697113 -1.4107348
-3.5312321 2.7708306 -1.4006071
-3.4897964 2.7709405 -1.3904793
-3.4519382 2.772455 -1.381543
-2.6794653 2.2836311 -1.098562
-2.6460254 2.2815711 -1.0902215
-2.5407631 2.216449 -1.0520936
-2.5157282 2.2218175 -1.0473276
-2.5189433 2.2498231 -1.0538808
-2.5399415 2.2950134 -1.0681789
-2.5248692 2.3087568 -1.0675831
-2.5059237 2.3180747 -1.0652001
-2.5120475 2.3507326 -1.0735406
-2.5091441 2.3761001 -1.0783066
-2.5064466 2.401078 -1.0830725
-2.5080817 2.4296515 -1.0896258
0.013589413 2.9946566 0.20940894
0.030233646 2.9865537 0.20885088
0.047859475 2.9803371 0.20843235
0.064893521 2.9740281 0.2080138
0.082374439 2.9676075 0.20759526
0.099465169 2.9670839 0.20759526
0.11707035 2.9664414 0.20759526
0.13363616 2.9657414 0.20759526
0.15071531 2.9649224 0.20759526
0.16864608 2.9699516 0.2080138
0.18535493 2.9709547 0.20815332
0.20377268 2.973748 0.20843235
0.2211155 2.9825118 0.20912991
0.23844874 2.9831777 0.20926942
0.25683004 2.9896612 0.20982747
0.27550256 3.0040269 0.21094358
0.29396176 3.0143044 0.21178065
0.31377894 3.036376 0.21345481
0.33396012 3.0542936 0.21484993
-1.2303457 2.3847723 0.18764491
-1.2125558 2.3849175 0.18708687
-1.2314107 2.4558578 0.19210933
-1.2993618 2.8764288 0.22070949
-1.2798383 2.8786194 0.22029094
-1.2587353 2.8770242 0.21959338
-1.2389874 2.8768966 0.21903533
-1.2138326 2.8637786 0.21750069
-1.10316 2.6462655 0.2004801
-1.0823044 2.6376193 0.19936401
-1.0629013 2.6347442 0.19866644
-1.0472478 2.641005 0.19866644
-1.0332065 2.6486714 0.19880594
-1.0851499 2.8808861 0.21526848
-1.0657693 2.8796041 0.21471043
-1.0478029 2.8819444 0.21443141
-1.0278323 2.8785369 0.21373384
-1.0100729 2.8827026 0.21359432
-0.99085754 2.8809257 0.21303627
-0.97310674 2.8848643 0.21289676
-0.95635241 2.8883603 0.21275724
-0.93673235 2.8863935 0.2121992
-0.91827768 2.8860373 0.21178065
-0.90045226 2.8874688 0.21150163
-0.88213658 2.8889451 0.2112226
-0.86376798 2.8882434 0.21080406
-0.84706259 2.891108 0.21066456
-0.61083913 2.3911855 0.17257752
-0.59554273 2.3868167 0.17201947
-0.57953799 2.384594 0.17160092
-0.5644142 2.3820682 0.17118238
-0.54978758 2.3813915 0.17090335
-0.53389746 2.3768256 0.17034531
-0.52062517 2.3818104 0.17048483
-0.50814283 2.390624 0.17090335
-0.49557614 2.3993726 0.1713219
-0.48174861 2.4021871 0.1713219
-0.46862739 2.4108789 0.17174044
-0.45763433 2.4312637 0.17299606
-0.096931316 4.0828767 0.28558299
-0.067054413 3.7662051 0.26340044
-0.04236285 3.467274 0.2424735
-0.020270189 3.2260585 0.22559243
-0.0010878253 3.11639 0.21791923
0.016118824 3.0784404 0.21526848
0.033585757 3.0543566 0.21359432
0.051867656 3.0321512 0.21205968
0.63191134 3.7440317 -1.0887675
0.58001208 3.3198981 -0.96638459
0.56255412 3.114069 -0.90739816
0.57431656 3.074769 -0.89692396
0.58639067 3.0450838 -0.88920611
0.60332596 3.0358934 -0.88755226
0.61708546 3.0115426 -0.88148826
0.63270605 3.0024054 -0.87983441
0.64969629 2.9948404 -0.87873191
0.66609764 2.9872959 -0.87762934
0.68234247 2.9816551 -0.87707806
0.69966292 2.9736884 -0.87597549
0.71671087 2.9716034 -0.87652677
0.73525572 2.9710305 -0.87762934
0.75183749 2.9668777 -0.87762934
0.7703619 2.9680808 -0.87928319
0.78843135 2.9673107 -0.8803857
0.8070218 2.968286 -0.88203955
0.82616782 2.9690013 -0.88369334
0.84430635 2.9678919 -0.8847959
0.86406952 2.9722104 -0.88755226
0.885005 2.9800854 -0.89141119
0.90546465 2.9839795 -0.8941676
0.92718667 2.9934065 -0.89857781
0.94904715 3.0026817 -0.90298796
0.97163498 3.013634 -0.90794945
0.99618173 3.0299039 -0.91456473
1.0251472 3.0567486 -0.92448771
1.0612284 3.1013608 -0.93992341
-3.6384602 2.0293016 -1.1946123
-3.6401007 2.0577929 -1.1990225
-3.6411693 2.0870056 -1.2034327
-3.6473753 2.1185641 -1.2094967
-3.6384265 2.1414866 -1.2105993
-3.6388631 2.1709197 -1.2150095
-3.6431365 2.2011509 -1.2205222
-3.6378195 2.2283854 -1.2232786
-3.6461613 2.2624784 -1.2304451
-3.6363256 2.2854872 -1.2315477
-3.6324289 2.3132212 -1.2348554
-3.90134 2.7807446 -1.3737766
-3.8400457 2.7705474 -1.3577896
-3.797631 2.7733433 -1.348418
-3.7177277 2.748966 -1.3258157
-3.3959711 2.5405109 -1.216112
-3.3578472 2.5432069 -1.2078429
-3.3228631 2.5478802 -1.2006763
-3.5379641 2.7443264 -1.2839189
-3.5442979 2.7830822 -1.2921879
-3.5026212 2.7831175 -1.2828163
-3.4660437 2.7857747 -1.2750984
-3.4236128 2.7862656 -1.2657267
-3.3857331 2.7870154 -1.2574576
-3.3504207 2.7904747 -1.250291
-3.3137112 2.7923815 -1.2425731
-2.5278842 2.312324 -0.98237151
-2.4961805 2.3098705 -0.97520494
-2.4599769 2.3036168 -0.96638459
-2.4327114 2.3045254 -0.96087182
-2.4069052 2.3065269 -0.95591033
-2.383918 2.3109844 -0.9520514
-2.3540964 2.3085234 -0.94543612
-2.3389914 2.3210979 -0.94488484
-2.3242273 2.333169 -0.94433355
-2.3201935 2.3561056 -0.94819248
0.014538928 2.975045 0.2775611
0.031133547 2.9729261 0.27737531
0.048676588 2.9667158 0.27681795
0.065762743 2.9663861 0.27681795
0.083476268 2.9699249 0.27718952
0.10037809 2.9634242 0.27663219
0.11811998 2.9667559 0.27700374
0.1348682 2.9700286 0.27737531
0.15197201 2.9692025 0.27737531
0.17004319 2.9762008 0.27811846
0.18703677 2.9811671 0.27867579
0.20592822 2.989902 0.27960473
0.22306746 2.994663 0.28016207
0.24158655 3.0092082 0.28164834
0.26080826 3.0235934 0.28313461
0.28059176 3.0478199 0.28554979
0.30085683 3.0738995 0.28815079
-1.2784485 2.1913128 0.23668864
-1.2336379 2.1436303 0.23074356
-1.2393515 2.1816533 0.23408768
-1.2604498 2.249774 0.24059011
-1.2513244 2.2639678 0.24133325
-1.2506564 2.2938659 0.24374843
-1.2464509 2.3187871 0.24560627
-1.247066 2.3523188 0.24839303
-1.2454907 2.3824039 0.25080821
-1.1820592 2.8835914 0.29075176
-1.1604607 2.8794732 0.28963706
-1.1404196 2.8789032 0.28889391
-1.122877 2.8815167 0.28852233
-1.097214 2.8658125 0.28629294
-0.99583369 2.6465671 0.26381308
-0.97850251 2.6466556 0.26325575
-0.95848429 2.6391451 0.26195526
-0.94326806 2.6446218 0.26195526
-0.92821592 2.6520524 0.26214105
-0.97153169 2.883518 0.28387776
-0.95416147 2.8851178 0.28350618
-0.93456799 2.8831518 0.28276303
-0.91794682 2.8884866 0.28276303
-0.89833426 2.8842194 0.28183413
-0.88004148 2.8856897 0.28146255
-0.8634066 2.8907106 0.28146255
-0.84501147 2.8878429 0.28071943
-0.82886964 2.8925171 0.28071943
-0.81011117 2.8936913 0.28034785
-0.79134911 2.8926852 0.27979049
-0.77416104 2.8952713 0.27960473
-0.75495619 2.8900485 0.27867579
-0.73436069 2.8789124 0.27718952
-0.55277473 2.5331295 0.24189059
-0.50882828 2.3979645 0.22869994
-0.49380231 2.3950045 0.22814259
-0.47804555 2.3880458 0.22721367
-0.46272841 2.3849757 0.22665632
-0.44930297 2.3915939 0.22702788
-0.43439102 2.3902993 0.22665632
-0.42137948 2.3946495 0.22684211
-0.40791419 2.3989999 0.22702788
-0.39431545 2.4053085 0.22739945
-0.38180912 2.4133739 0.2279568
-0.36927819 2.4274092 0.22907151
-0.078327939 3.3485386 0.31248847
-0.054980654 3.1498396 0.29391009
-0.018186137 3.0646374 0.28592137
0 3.0447779 0.28406352
0.016916186 3.0287998 0.28257725
0.034202307 3.0147135 0.28127676
0.052408867 3.002502 0.28016207
0.58664411 3.8835874 -1.0282009
0.54090267 3.4423389 -0.91221172
0.51440203 3.1585472 -0.8377558
0.51927584 3.0734053 -0.81597614
0.53463548 3.0570223 -0.81243068
0.5498237 3.0405648 -0.80888516
0.5650124 3.0220339 -0.80483311
0.57931834 3.0055323 -0.80128759
0.5960108 2.9963489 -0.79976809
0.61183733 2.9832826 -0.79723555
0.62848949 2.9798188 -0.79723555
0.6457504 2.9741461 -0.79672909
0.66329086 2.972266 -0.79723555
0.67988074 2.9685152 -0.79723555
0.69844502 2.9661899 -0.79774207
0.71590829 2.9660044 -0.79875505
0.73442644 2.9654601 -0.79976809
0.75244588 2.9649315 -0.80078107
0.76999676 2.9624212 -0.80128759
0.79003125 2.9691556 -0.80432659
0.80915219 2.9720235 -0.80635262
0.82989019 2.9783525 -0.80939162
0.8491506 2.9809663 -0.81141764
0.87063169 2.9908879 -0.81546968
0.89060068 2.9950964 -0.81800216
0.91454512 3.0101225 -0.82357371
0.93702489 3.0214369 -0.82813221
0.96433502 3.047349 -0.83674282
0.99494612 3.0822518 -0.84788585
-3.5845335 2.7814512 -1.1877493
-3.5420992 2.7823553 -1.1791388
-3.5048108 2.7858553 -1.1720477
-3.400233 2.7338576 -1.142164
-3.1298969 2.5481367 -1.056565
-3.0957549 2.5501289 -1.0499805
-3.0720985 2.5604844 -1.0469415
-3.1628695 2.7963028 -1.1051893
-3.1284521 2.797159 -1.0986048
-3.0922012 2.7969606 -1.0915138
-3.0569963 2.7982779 -1.0849292
-2.9255886 2.8055387 -1.0611236
-2.3407571 2.3244724 -0.86358744
-2.3082204 2.3187187 -0.85649639
-2.2758281 2.3126678 -0.84940535
-2.245878 2.3094871 -0.84332734
-2.2222157 2.3108377 -0.8392753
-2.1991341 2.3141661 -0.83572978
-2.1778209 2.3183327 -0.83269078
-2.1565328 2.3223307 -0.82965177
-2.144022 2.3365126 -0.83015823
-2.1292293 2.3473892 -0.82965177
0.015528766 2.965749 0.34682599
0.032135297 2.9695885 0.34729061
0.049723238 2.9673595 0.3470583
0.066813082 2.9670238 0.3470583
0.084474981 2.9685607 0.34729061
0.10170705 2.9719956 0.34775519
0.11934134 2.9713397 0.34775519
0.1362977 2.9785645 0.3486844
0.1536551 2.9816978 0.34914902
0.17180206 2.9886661 0.3500782
0.18961684 3.0055027 0.35216892
0.20907025 3.0201421 0.35402733
0.22756532 3.0407176 0.35658264
0.24667129 3.0591567 0.35890567
0.26841974 3.0991993 0.36378399
-1.2853948 1.8208135 0.26064217
-1.2373897 1.7744164 0.25297624
-1.2395447 1.7995089 0.25553155
-1.2310787 1.810118 0.25599614
-1.2328171 1.8353173 0.25855145
-1.2288148 1.8523192 0.25994527
-1.2290118 1.8759823 0.26226828
-1.2322135 1.9047121 0.2652882
-1.2347871 1.9337558 0.2683081
-1.2352827 1.9593197 0.27086344
-1.2425239 1.9969749 0.27504486
-1.0646443 2.8827455 0.35937026
-1.044636 2.8794928 0.35820875
-1.0273675 2.8835902 0.35797647
-1.0082712 2.8840106 0.35727954
-0.98455143 2.8691018 0.35472423
-0.89084291 2.6470861 0.32661578
-0.87106037 2.6369305 0.32475737
-0.85539728 2.6420531 0.32475737
-0.84016603 2.6469359 0.32475737
-0.82549697 2.6536279 0.32498965
-0.86198366 2.8896246 0.35263354
-0.84583157 2.8943937 0.35263354
-0.82801354 2.893343 0.35193661
-0.80764943 2.8887815 0.35077512
-0.79049289 2.8935235 0.35077512
-0.75946552 2.84429 0.34427068
-0.74056411 2.8390064 0.34310916
-0.72469074 2.8451495 0.34334147
-0.70687097 2.8414419 0.34241226
-0.68950051 2.8457067 0.34241226
-0.67264241 2.8476975 0.34217995
-0.65578425 2.8495886 0.34194767
-0.63712698 2.8456759 0.34101847
-0.42164758 2.3986259 0.28480151
-0.40749294 2.399056 0.2845692
-0.39132345 2.3896699 0.28317541
-0.37797096 2.391818 0.28317541
-0.36317423 2.3900909 0.28271079
-0.33451575 2.3862469 0.28178158
-0.32167017 2.3980341 0.2829431
-0.30734771 2.3959064 0.28247851
-0.29499167 2.4094672 0.28387231
-0.28275576 2.4289336 0.28596303
-0.26896703 2.4285004 0.28573072
-0.17423898 3.75037 0.43904963
-0.14100625 3.4654973 0.40559825
-0.11243752 3.2359822 0.37865129
-0.090287611 3.1154528 0.36448088
-0.071466453 3.0781884 0.36006716
-0.052787103 3.0547245 0.35727954
-0.035516512 3.0370946 0.35518885
-0.017413421 3.0233469 0.35356274
0.00052594882 3.0134647 0.35240123
0.017276127 2.9995096 0.35077512
0.034414388 2.9874425 0.3493813
0.052627865 2.9851904 0.34914902
0.47448319 3.2604311 -0.78067368
0.46761522 3.088316 -0.7400952
0.48048359 3.0508831 -0.73179507
0.49438041 3.028945 -0.72718394
0.50974661 3.0106075 -0.72349495
0.52472639 2.9942033 -0.72026712
0.54022813 2.9815567 -0.71796155
0.55647814 2.9706471 -0.71611708
0.57232261 2.9636712 -0.71519482
0.58989918 2.960223 -0.71519482
0.60667175 2.9528575 -0.71427262
0.62355632 2.9513273 -0.71473372
0.64188594 2.9513786 -0.71565592
0.65887392 2.9476326 -0.71565592
0.67532629 2.9439068 -0.71565592
0.69419026 2.9435148 -0.71657819
0.71290547 2.9490499 -0.71888375
0.73132986 2.9485455 -0.71980602
0.74970227 2.9519598 -0.72165048
0.76865143 2.9551268 -0.72349495
0.78866333 2.9619341 -0.72626168
0.80775595 2.9648535 -0.72810614
0.83003962 2.9768794 -0.73225623
0.85090578 2.9851503 -0.73548406
0.87461585 3.0026217 -0.74101746
0.89800018 3.0180526 -0.74608976
0.92608291 3.0461862 -0.75438988
-2.6636167 2.2208173 -0.82171321
-2.6418564 2.2285929 -0.81894648
-2.6408191 2.2538788 -0.82263547
-2.8674536 2.5360167 -0.90702015
-2.8459923 2.5455048 -0.90471452
-2.8211827 2.5527141 -0.90148669
-2.6394918 2.4169543 -0.84799695
-2.981622 2.7950368 -0.96834892
-2.9471166 2.7947547 -0.96235436
-2.9155228 2.7968628 -0.95728207
-2.8798132 2.7946343 -0.95082641
-2.8456154 2.7934513 -0.94483185
-2.819324 2.8006873 -0.94160402
-2.785301 2.7989459 -0.93560946
-2.7541215 2.7996807 -0.93053716
-2.7238941 2.8020203 -0.92592597
-2.6933665 2.8017566 -0.92085367
-2.1206317 2.3118322 -0.74332303
-2.0902872 2.3052657 -0.73732853
-2.0665839 2.3056729 -0.7336396
-2.0442362 2.3073409 -0.73041177
-2.0206559 2.307364 -0.72672278
-1.9992876 2.3104842 -0.72395611
-1.9783574 2.313087 -0.72118938
-1.9658527 2.3262725 -0.72165048
-1.9553254 2.3402023 -0.72257274
0.01616996 2.9885852 0.42002442
0.032882806 2.9904287 0.42030278
0.050661214 2.9921613 0.4205811
0.06793882 2.9937999 0.42085946
0.085873134 2.9992831 0.42169449
0.10348666 3.0086358 0.42308623
0.12157782 3.0139053 0.42392126
0.13895394 3.0250502 0.42559135
0.1569882 3.036067 0.42726141
0.1761418 3.0548544 0.43004489
0.19457603 3.0755653 0.43310669
0.21596514 3.1118593 0.43839526
-1.2602032 1.4395186 0.26888242
-1.2373862 1.4304945 0.26582062
-1.235562 1.4451243 0.26721236
-1.230799 1.4569696 0.26804739
-1.23153 1.4744614 0.26999581
-1.2341038 1.4954915 0.27250093
-1.2342323 1.5133183 0.27444935
-1.2329532 1.5296538 0.27611944
-1.2361916 1.5524366 0.27890289
-1.2333536 1.567313 0.28029463
-1.2343094 1.5866827 0.2825214
-1.241767 1.6159651 0.28641823
-0.9605149 2.9094379 0.43060157
-0.94079429 2.9075491 0.42948818
-0.92283475 2.9091439 0.4289315
-0.90547615 2.9125195 0.42865315
-0.88356316 2.9026837 0.42642638
-0.80232728 2.6913533 0.39469492
-0.77840018 2.6653745 0.39024138
-0.76241273 2.6658719 0.38968468
-0.74664664 2.6723869 0.38996303
-0.7302537 2.6748598 0.38968468
-0.75261974 2.820627 0.41028231
-0.74685264 2.8651612 0.41612756
-0.7288726 2.8636572 0.41529253
-0.71238989 2.8657613 0.41501418
-0.69440472 2.8681347 0.41473585
-0.67650914 2.8663039 0.41390079
-0.65865779 2.8643622 0.41306576
-0.64164883 2.8682203 0.41306576
-0.62553972 2.8738036 0.41334412
-0.6081574 2.8734834 0.41278741
-0.59000164 2.8691788 0.41167402
-0.57307893 2.8705871 0.4113957
-0.55490589 2.8681037 0.41056064
-0.53714722 2.8674529 0.41000396
-0.52082825 2.8744874 0.41056064
-0.35572568 2.5440054 0.36101502
-0.3243404 2.4243627 0.34375757
-0.30936652 2.4183323 0.34264418
-0.29519287 2.418108 0.34236583
-0.28080341 2.4158337 0.34180912
-0.25233904 2.4129984 0.34097409
-0.23882633 2.4183538 0.3415308
-0.22556907 2.4315608 0.34320086
-0.21146944 2.4268634 0.34236583
-0.19871658 2.4378767 0.34375757
-0.18441619 2.4469447 0.34487095
-0.14522903 3.149667 0.44312716
-0.12564905 3.1148307 0.43811691
-0.10607383 3.0838516 0.43366337
-0.087913685 3.0705533 0.43171495
-0.069774419 3.0512085 0.4289315
-0.051432364 3.0377071 0.42698309
-0.034286149 3.0221035 0.42475632
-0.016309265 3.0143318 0.42364293
0.0015793606 3.0163562 0.42392126
0.01834107 3.0024369 0.42197284
0.03565697 3.0042617 0.42225119
0.053865772 2.996067 0.42113781
0.41847876 3.1197369 -0.66905981
0.42776871 3.0592277 -0.6565851
0.44393805 3.0430849 -0.65367436
0.45793492 3.0172677 -0.6486845
0.47339141 2.9990382 -0.64535791
0.4882389 2.9847636 -0.64286298
0.50496036 2.9760277 -0.64161545
0.52107751 2.9672894 -0.64036798
0.53746021 2.9603894 -0.63953638
0.55501795 2.9571481 -0.63953638
0.57152504 2.9540021 -0.63953638
0.58904427 2.9505587 -0.63953638
0.60614842 2.9450951 -0.63912052
0.62299246 2.9435778 -0.63953638
0.64211458 2.9474747 -0.64119965
0.6603623 2.9494548 -0.64244711
0.67770094 2.9495339 -0.64327878
0.6975047 2.9529545 -0.64494205
0.7153672 2.9547172 -0.64618951
0.734303 2.9561157 -0.64743698
0.75369477 2.9633441 -0.64993197
0.77370852 2.9703128 -0.6524269
0.79533952 2.9828196 -0.6561693
0.8171401 2.9951751 -0.65991169
0.84121239 3.0128844 -0.66490161
0.86875302 3.0437315 -0.67280221
-2.7170949 2.215219 -0.74515551
-2.6880779 2.2166686 -0.74058145
-2.6872833 2.2421403 -0.74390805
-3.0421953 2.7229042 -0.86782342
-2.6871271 2.4331219 -0.77052075
-3.0128617 2.7928722 -0.87322909
-2.8806665 2.7022889 -0.8395474
-2.6905119 2.5532005 -0.78840113
-2.6560044 2.5496874 -0.7825796
-2.6356614 2.5594912 -0.78091633
-2.7115881 2.6637402 -0.80794483
-2.8122756 2.7956367 -0.84287399
-2.7823331 2.7979162 -0.83871573
-2.7510865 2.7985487 -0.83414173
-2.7235262 2.8035991 -0.83081514
-2.6929176 2.8032475 -0.82624108
-2.6587262 2.8007336 -0.82083535
-2.6305029 2.8031614 -0.81709296
-2.5956881 2.7981861 -0.81127143
-2.5750721 2.8092136 -0.81002396
-2.5470273 2.810951 -0.80628157
-2.5190485 2.812459 -0.80253911
-2.4924338 2.8152032 -0.79921252
-1.9589097 2.3196986 -0.64535791
-1.929624 2.3110812 -0.63995218
-1.8772845 2.2757092 -0.62706167
-1.8678548 2.2910326 -0.62830913
-1.8570833 2.3047993 -0.62914079
-1.8445921 2.3173094 -0.6295566
-1.8251673 2.3202071 -0.62747747
-1.8097786 2.3272758 -0.62664586
-1.793553 2.3348713 -0.6258142
-1.7800754 2.3451626 -0.6258142
0.017243318 2.9938135 0.49187365
0.033985961 2.9956439 0.49219787
0.05193226 3.0052557 0.49381909
0.069285795 3.0068798 0.49414334
0.087413505 3.0162792 0.49576452
0.10519567 3.0275598 0.49770999
0.12388172 3.0446296 0.50062817
0.14188783 3.0655758 0.5041948
0.16097821 3.0922999 0.50873417
-1.2416205 1.1513643 0.27819881
-1.2318882 1.156011 0.27755031
-1.2266409 1.1644458 0.27787456
-1.2284547 1.1796931 0.27982
-1.2301333 1.1949997 0.28176546
-1.2330836 1.2117479 0.28403515
-1.22867 1.2218269 0.28468361
-1.231352 1.2386807 0.2869533
-1.2255806 1.2471598 0.28727755
-1.2319072 1.2685688 0.29051995
-1.2248031 1.2754292 0.29051995
-1.2307979 1.2969904 0.29376236
-1.2287084 1.3098152 0.29505932
-1.2332213 1.3298943 0.29797751
-0.85262084 2.8637106 0.4909009
-0.83385074 2.8589547 0.48927972
-0.81570238 2.8559766 0.48798275
-0.79718035 2.8571043 0.48733425
-0.78021199 2.8617845 0.48733425
-0.76015955 2.8528817 0.48506457
-0.70046479 2.691051 0.4568556
-0.67571747 2.6586988 0.45069504
-0.66275978 2.6700931 0.45199201
-0.6450457 2.6683369 0.45101926
-0.6305719 2.6758497 0.45166776
-0.64473701 2.8083117 0.47339189
-0.62316918 2.8677292 0.48214641
-0.60541809 2.865478 0.48117369
-0.5889042 2.8689175 0.48117369
-0.57044226 2.8625844 0.47955248
-0.5534454 2.8659189 0.47955248
-0.53606635 2.8672128 0.47922823
-0.51834029 2.8664594 0.47857976
-0.50232297 2.8693094 0.47857976
-0.48578867 2.8721552 0.47857976
-0.46778378 2.8691437 0.47760704
-0.45175225 2.8717115 0.47760704
-0.43440822 2.8723905 0.47728279
-0.41707203 2.8729646 0.47695854
-0.23926769 2.4315009 0.4014104
-0.22447152 2.4289477 0.4007619
-0.21004912 2.4203327 0.39914072
-0.19604929 2.4155667 0.39816797
-0.18128987 2.4167192 0.39816797
-0.16723134 2.4157546 0.39784375
-0.1530177 2.418674 0.39816797
-0.13976425 2.4313369 0.40011343
-0.1255547 2.4281597 0.39946494
-0.11150443 2.436748 0.4007619
-0.097862288 2.4472096 0.40238312
-0.097978272 2.8777301 0.47306767
-0.049932346 3.0112109 0.49479181
-0.033027079 3.0035493 0.49349484
-0.015163227 2.9957983 0.49219787
0.0026126381 2.9938619 0.49187365
0.019320646 2.9918272 0.4915494
0.036551919 2.9916663 0.4915494
0.05475384 2.9874408 0.4909009
0.39876357 3.6061847 -0.68358153
0.37782171 3.2406464 -0.61470497
0.37808919 3.0882008 -0.58619153
0.39393768 3.0624413 -0.58174789
0.40868768 3.0386949 -0.57767451
0.4223974 3.0169749 -0.57397151
0.43968144 3.0065594 -0.57249027
0.45521703 2.9923186 -0.57026845
0.47143009 2.9798584 -0.56841695
0.48742941 2.9733 -0.56767631
0.5048753 2.9723809 -0.56804663
0.5209657 2.9636164 -0.56693572
0.53802615 2.9605668 -0.56693572
0.55594784 2.9592535 -0.56730604
0.57284033 2.9580321 -0.56767631
0.59089911 2.9544775 -0.56767631
0.60961151 2.9566939 -0.56878722
0.62600702 2.9552751 -0.56915754
0.6453051 2.9571567 -0.57026845
0.66404665 2.961062 -0.57174969
0.68277782 2.9668839 -0.57360119
0.70224607 2.9683957 -0.5747121
0.72107315 2.9760137 -0.57693392
0.74251354 2.9869411 -0.57989639
0.76358569 2.9978521 -0.5828588
0.78480798 3.0086186 -0.58582121
0.81074286 3.0363297 -0.59211642
0.83909446 3.0714247 -0.5998928
-2.7658863 2.2278063 -0.66913968
-2.740041 2.2347231 -0.66617721
-2.7422838 2.2629769 -0.66988027
-2.7469735 2.4328823 -0.69135791
-2.7494473 2.4626105 -0.69543129
-2.8838544 2.8024678 -0.75764239
-2.852248 2.803875 -0.75356901
-2.8202319 2.8055038 -0.74949569
-2.7610798 2.7784829 -0.73801625
-2.5246572 2.5700071 -0.67876756
-2.4984102 2.5736616 -0.67580515
-2.4717474 2.5748143 -0.67247242
-2.4577775 2.5908625 -0.67284274
-2.6148305 2.8207958 -0.72468531
-2.5821147 2.8188713 -0.72024167
-2.5579212 2.824955 -0.71801984
-2.5285006 2.8249958 -0.71431679
-2.4965599 2.8218477 -0.70987314
-2.4686215 2.8228645 -0.70654041
-2.4415467 2.8255668 -0.70357794
-2.4137442 2.8261316 -0.7002452
-2.3855233 2.8268864 -0.69691247
