# .PCD v0.7 - Point Cloud Data file format
VERSION 0.7
FIELDS x y z
SIZE 4 4 4
TYPE F F F
COUNT 1 1 1
WIDTH 1482
HEIGHT 1
VIEWPOINT 0 0 0 1 0 0 0
POINTS 1482
DATA ascii
-2.9166479 -1.2170707 -0.59544915
-2.9131176 -1.1947566 -0.59322733
-2.905369 -1.1720761 -0.59026486
-2.9011102 -1.1509743 -0.58804303
-2.8950708 -1.1287409 -0.58545095
-2.8919604 -1.1095406 -0.58359939
-2.8874588 -1.0882012 -0.58137757
-2.8826199 -1.0674576 -0.57915574
-2.8759737 -1.045632 -0.5765636
-2.8745444 -1.0264066 -0.57508242
-2.8692799 -1.0059321 -0.5728606
-2.8620169 -0.98491275 -0.57026845
-2.867811 -0.96791196 -0.57026845
-2.8565459 -0.9458186 -0.56693572
-2.856338 -0.92752939 -0.56582481
-2.8541417 -0.90867782 -0.56434357
-2.8501022 -0.88879949 -0.56249207
-2.8437445 -0.86941993 -0.56027025
-2.8368039 -0.7952531 -0.55508596
-2.8318596 -0.77630311 -0.55323446
-2.8324869 -0.75896257 -0.55249387
-2.829335 -0.74015135 -0.55101264
-2.8277121 -0.72287756 -0.54990172
-2.8281379 -0.70513397 -0.54916114
-2.8206937 -0.68604654 -0.54693931
-2.8266277 -0.66974938 -0.54730958
-2.820863 -0.65124756 -0.54545808
-2.8226495 -0.63455874 -0.54508775
-2.8185775 -0.61661088 -0.54360658
-2.822082 -0.60036689 -0.54360658
-2.8159711 -0.58162206 -0.54175502
-2.8154202 -0.56462079 -0.54101443
-2.8128376 -0.54726976 -0.53990352
-2.8102415 -0.52947682 -0.53879261
-2.8073545 -0.51271397 -0.5376817
-2.8084121 -0.49570423 -0.53731138
-2.805408 -0.47852936 -0.53620046
-2.8022997 -0.46140561 -0.53508955
-2.8030472 -0.4444606 -0.53471923
-2.8016748 -0.42771569 -0.53397864
-2.8002026 -0.41100135 -0.53323805
-2.8005772 -0.3945924 -0.53286773
-2.7950125 -0.3774038 -0.53138649
-2.7991521 -0.36106274 -0.53175682
-2.7933824 -0.34397405 -0.53027558
-2.7914703 -0.32693458 -0.529535
-2.7952604 -0.31106892 -0.52990532
-2.7891359 -0.29462659 -0.52842408
-2.7908351 -0.27807045 -0.52842408
-2.7904792 -0.26132125 -0.52805376
-2.7727504 -0.050334897 -0.5224992
-2.7769308 -0.033928297 -0.52323979
-2.771184 -0.017895775 -0.52212888
-2.7732067 -0.0019360638 -0.5224992
-2.7712038 0.014510122 -0.52212888
-2.771069 0.030954424 -0.52212888
-2.7708447 0.046914034 -0.52212888
-2.7666097 0.062300045 -0.52138829
-2.7642128 0.079142787 -0.52101797
-2.765692 0.094646968 -0.52138829
-2.7631178 0.11097828 -0.52101797
-2.7624106 0.12737289 -0.52101797
-2.7597182 0.14221589 -0.5206477
-2.760788 0.15870258 -0.52101797
-2.7578666 0.17447676 -0.5206477
-2.7548552 0.19022256 -0.52027738
-2.7556376 0.20671378 -0.5206477
-2.7544014 0.2225816 -0.5206477
-2.7511158 0.23827244 -0.52027738
-2.755569 0.25465629 -0.52138829
-2.7501445 0.27013865 -0.5206477
-2.7524028 0.28686094 -0.52138829
-2.750705 0.3027088 -0.52138829
-2.7488601 0.31902638 -0.52138829
-2.750879 0.33532897 -0.52212888
-2.7509129 0.35093617 -0.5224992
-2.7507303 0.36751443 -0.52286953
-2.7505145 0.3836228 -0.52323979
-2.7501345 0.40022087 -0.52361012
-2.7458405 0.41575953 -0.52323979
-2.7511666 0.43278918 -0.52472103
-2.7505679 0.44894409 -0.52509135
-2.7518125 0.46543422 -0.52583194
-2.7509379 0.48209479 -0.52620226
-2.7539175 0.49898219 -0.52731317
-2.750998 0.51483524 -0.52731317
-2.749824 0.53152382 -0.5276835
-2.7468126 0.54687339 -0.5276835
-2.7512202 0.56474441 -0.52916467
-2.7497435 0.58146703 -0.529535
-2.7502942 0.59765005 -0.53027558
-2.7542641 0.61615574 -0.53175682
-2.7525852 0.63244897 -0.53212714
-2.752836 0.64871395 -0.53286773
-2.7545526 0.66690534 -0.53397864
-2.7584155 0.68417174 -0.53545988
-2.7581165 0.70149732 -0.53620046
-2.7521284 0.71687579 -0.53583014
-2.7555501 0.73474038 -0.53731138
-2.7608848 0.75270361 -0.53916287
-2.762049 0.77065825 -0.54027379
-2.7630968 0.78865325 -0.5413847
-2.7661967 0.80627286 -0.54286593
-2.7670145 0.82435697 -0.54397684
-2.769742 0.8425681 -0.54545808
-2.7704742 0.86025512 -0.54656899
-2.7690678 0.87786812 -0.54730958
-2.7770562 0.89803529 -0.54990172
-2.779304 0.91647702 -0.55138296
-2.7814314 0.93497431 -0.55286413
-2.7834375 0.95352644 -0.55434537
-2.7851524 0.97261876 -0.5558266
-2.788763 0.9919371 -0.5576781
-2.7883713 1.0104773 -0.55878901
-2.7861931 1.0278809 -0.5595296
-2.7914495 1.0475692 -0.56175148
-2.7925279 1.0669212 -0.56323266
-2.7954962 1.0865474 -0.56508422
-2.7944822 1.1052855 -0.56619513
-2.7953637 1.1242958 -0.56767631
-2.7942996 1.1426089 -0.56878722
-2.7967467 1.1624556 -0.57063878
-2.7990577 1.1823683 -0.57249027
-2.8046339 1.204386 -0.57508242
-2.8138635 1.2275926 -0.57841516
-2.8121371 1.2461677 -0.57952607
-2.8190298 1.2692885 -0.58248848
-2.8208349 1.2890977 -0.58434004
-2.823832 1.3107792 -0.58656186
-2.8269031 1.3320481 -0.58878368
-2.8298228 1.3533956 -0.5910055
-2.8305819 1.3744566 -0.592857
-2.838486 1.3985548 -0.59618974
-2.8391738 1.4192741 -0.5980413
-2.8429711 1.4423215 -0.60063338
-2.8506012 1.4662681 -0.60396612
-2.8488195 1.4867954 -0.60544735
-2.8506317 1.5086949 -0.60766917
-2.8537505 1.5320919 -0.61026132
-2.8537812 1.5527029 -0.61211282
-2.8634462 1.5800552 -0.6161862
-2.8680208 1.6041968 -0.61914861
-2.8689926 1.6265045 -0.62137043
-2.871218 1.6503569 -0.62396258
-2.8735533 1.6737911 -0.62655467
-2.8790987 1.6993047 -0.6298874
-2.8807707 1.7234229 -0.63247955
-2.886229 1.748651 -0.63581228
-2.8925507 1.7760313 -0.63951534
-2.8956251 1.8009658 -0.64247775
-2.8968449 1.8249468 -0.6450699
-2.898895 1.8510704 -0.64803231
-2.9036942 1.8763281 -0.65136504
-2.9105973 1.9053671 -0.65543842
-2.9152818 1.9339763 -0.65914148
-2.9191203 1.9600887 -0.66247422
-2.920439 1.9862189 -0.66543663
-2.9283762 2.0163822 -0.66988027
-2.9383893 2.0468006 -0.67469424
-2.9245856 2.0630682 -0.67432392
-2.9234867 2.0883837 -0.67691606
-2.9714811 2.2027957 -0.69691247
-2.982717 2.237046 -0.70246702
-2.9823072 2.2636945 -0.70542949
-2.9949136 2.3022332 -0.71172464
-2.9990754 2.3321955 -0.71579802
-3.0052593 2.3657553 -0.72061193
-3.0100315 2.3977201 -0.72505558
-3.0309408 2.5306666 -0.74394113
-3.0433402 2.5709116 -0.7506066
-3.0493994 2.6062746 -0.75579083
-3.0596116 2.6456487 -0.76208603
-3.0660439 2.6831734 -0.76764059
-3.0536401 2.8001072 -0.7806012
-3.0216119 2.8029451 -0.77652788
-2.9877303 2.8046844 -0.77208424
-2.9544246 2.8056049 -0.76764059
-2.9212081 2.8062356 -0.76319695
-4.3498993 7.6759124 -1.6622955
0.69413739 7.4402161 1.4078965
0.8054322 7.6760631 1.4541845
0.86737072 7.8314815 1.4845495
0.93662256 8.0214128 1.5215799
1.1480223 -11.361234 2.1514673
0.95848435 -10.739606 2.0314889
-0.54626888 -4.7723231 0.90502346
-0.57504886 -4.7729001 0.90576404
-0.60425341 -4.7831583 0.90835619
-0.6315347 -4.7776504 0.90798587
-0.65124685 -4.7174721 0.89724708
-0.6534878 -4.5405045 0.86429
-0.68012851 -4.5346031 0.86391968
-0.71693623 -4.4313984 0.84577477
-0.74985808 -4.3142743 0.82503772
-0.76530582 -4.2576547 0.81503952
-0.77869117 -4.1932721 0.80356008
-0.79321045 -4.1385303 0.7939322
-0.80669385 -4.077837 0.78319335
-0.81839156 -4.0153484 0.77208424
-0.83210617 -3.9623346 0.76282662
-0.84219748 -3.9019113 0.75208783
-0.85486501 -3.8528645 0.7435708
-0.86722261 -3.8017349 0.73468351
-0.87969363 -3.7564905 0.72690713
-0.88845849 -3.6978526 0.71653861
-0.90050608 -3.6524415 0.70876223
-0.91511738 -3.6244879 0.70431858
-1.0307854 -3.078907 0.6117425
-1.0384498 -3.0451987 0.60618794
-1.0437152 -3.0038927 0.59915221
-1.0543054 -2.9772668 0.59507883
-1.060768 -2.9415629 0.58915395
-1.0709188 -2.9169545 0.58545095
-1.0771966 -2.881093 0.57952607
-1.086285 -2.8566611 0.57582301
-1.0897377 -2.8153396 0.56878722
-1.1001747 -2.7943861 0.56582481
-1.1043129 -2.7567923 0.5595296
-1.1142417 -2.7358243 0.55656719
-1.1185111 -2.7043288 0.55138296
-1.1251005 -2.6738951 0.54656899
-1.1293528 -2.6400661 0.54101443
-1.1367058 -2.6154923 0.53731138
-1.141432 -2.5855281 0.53249741
-1.1506758 -2.5663571 0.52990532
-1.1524071 -2.5310674 0.52398044
-1.1611928 -2.5118999 0.52138829
-1.1639814 -2.4780755 0.51583374
-1.1718848 -2.4591162 0.51324159
-1.1749045 -2.4293244 0.50842768
-1.1841023 -2.4117241 0.50620586
-1.1844127 -2.3786826 0.50065124
-1.1896424 -2.3540709 0.49694821
-1.1946222 -2.3294814 0.49324518
-1.1985476 -2.3053348 0.48954213
-1.3422343 -1.5571898 0.38733819
-1.3387988 -1.5341532 0.38363513
-1.342144 -1.5207577 0.38215393
-1.347217 -1.5083688 0.38104302
-1.3545644 -1.4991262 0.38067269
-1.3485898 -1.4753422 0.37659937
-1.3597335 -1.4704365 0.37733996
-1.356349 -1.4494262 0.37400723
-1.3673768 -1.4444448 0.37474784
-1.3593612 -1.4195112 0.3703042
-1.3620443 -1.4060117 0.36882296
-1.3648603 -1.3922904 0.36734176
-1.3687048 -1.3802196 0.36623085
-1.3629493 -1.3582 0.36252779
-1.3705136 -1.3505666 0.36252779
-1.3672392 -1.3314404 0.35956538
-1.3734691 -1.3221806 0.35919505
-1.3710951 -1.3047638 0.35660294
-1.3759499 -1.2939118 0.35586232
-1.3761818 -1.2792747 0.35401082
-1.3833052 -1.2715688 0.35401082
-1.3750411 -1.2485615 0.34993747
-1.3805305 -1.2395493 0.34956715
-1.3849214 -1.2287265 0.34882656
-1.3831092 -1.2129543 0.34660473
-1.3811617 -1.1972439 0.34438288
-1.3940043 -1.1943843 0.34586412
-1.3860667 -1.1733921 0.34216106
-1.3943093 -1.1666508 0.34253138
-1.3888887 -1.1485804 0.33956894
-1.3985246 -1.1430496 0.34030956
-1.3945789 -1.1260873 0.33771741
-1.3995053 -1.1168106 0.33734712
-1.3983905 -1.1024022 0.33549559
-1.3983247 -1.0897424 0.33401439
-1.3999064 -1.078073 0.33290347
-1.4047148 -1.0685569 0.33253315
-1.3998482 -1.0521824 0.32994103
-1.4041321 -1.0299292 0.32808951
-1.4098624 -1.022071 0.32808951
-1.4079123 -1.0079662 0.32623801
-1.4136944 -0.9998405 0.32623801
-1.4051005 -0.98130578 0.32290524
-1.4114381 -0.96173531 0.32179433
-1.4191489 -0.94323736 0.32105374
-1.4181482 -0.93048662 0.31957251
-1.4218343 -0.92123455 0.31920221
-1.4238055 -0.91091174 0.3184616
-1.4225384 -0.89824933 0.31698039
-1.4260205 -0.88900143 0.31661007
-1.4194003 -0.87356246 0.31401795
-1.4277676 -0.86741382 0.31475857
-1.4192553 -0.85108978 0.31179613
-1.4259722 -0.84365356 0.31216642
-1.4257158 -0.83245355 0.31105551
-1.4255211 -0.8210358 0.3099446
-1.4283758 -0.81209004 0.30957431
-1.4261729 -0.80000359 0.3080931
-1.4343346 -0.7934292 0.30883369
-1.4337049 -0.78233057 0.30772278
-1.4106287 -0.75891024 0.30179793
-1.4132401 -0.74985188 0.3014276
-1.4399996 -0.7324506 0.30439004
-1.4355353 -0.7194894 0.30253851
-1.4326069 -0.70772731 0.30105731
-1.4348922 -0.69860405 0.30068702
-1.435348 -0.68862784 0.2999464
-1.4323009 -0.67673969 0.29846516
-1.4397386 -0.67013782 0.29920578
-1.4382145 -0.65937716 0.29809487
-1.4348233 -0.64784753 0.29661366
-1.4404385 -0.64011997 0.29698396
-1.4439911 -0.63206506 0.29698396
-1.4442147 -0.62167829 0.29624334
-1.4404259 -0.61053461 0.29476213
-1.4402905 -0.60071516 0.29402152
-1.4401929 -0.59066617 0.29328093
-1.4453937 -0.5830968 0.29365122
-1.4466199 -0.56401348 0.29254031
-1.4493421 -0.54592699 0.29179969
-1.4426961 -0.52424312 0.28920758
-1.4504939 -0.50823998 0.28957787
-1.4488885 -0.48873121 0.28809667
-1.4525527 -0.47140247 0.28772634
-1.4579657 -0.45438489 0.28772634
-1.4594131 -0.43617958 0.28698575
-1.4510417 -0.41580546 0.28439361
-1.4577003 -0.39932865 0.28476393
-1.4466863 -0.38736781 0.28217179
-1.4565656 -0.38076457 0.28365302
-1.4548609 -0.37165076 0.2829124
-1.4551336 -0.3625358 0.28254211
-1.462927 -0.35554132 0.28365302
-1.4535358 -0.34413707 0.2814312
-1.4497484 -0.33443427 0.28032029
-1.4516505 -0.32607883 0.28032029
-1.4554245 -0.31813225 0.28069058
-1.4572327 -0.30974439 0.28069058
-1.4590452 -0.30109158 0.28069058
-1.458828 -0.29229701 0.28032029
-1.4624165 -0.28426498 0.28069058
-1.4582832 -0.27449119 0.27957967
-1.4597934 -0.26634234 0.27957967
-1.4497349 -0.25562736 0.27735785
-1.4550581 -0.24793358 0.27809843
-1.4506439 -0.23859207 0.27698752
-1.4597991 -0.23120946 0.27846876
-1.4513917 -0.22131646 0.27661723
-1.4565316 -0.21352358 0.27735785
-1.455791 -0.20485719 0.27698752
-1.4530512 -0.19594377 0.27624694
-1.4515337 -0.051449634 0.27365479
-1.4463152 -0.026003052 0.27254388
-1.4503746 -0.017467374 0.27328449
-1.4406242 -0.0090518286 0.27143297
-1.4445833 -0.00075638213 0.27217358
-1.4445623 0.0078159105 0.27217358
-1.4345508 0.024288826 0.27032205
-1.4420272 0.041286997 0.27180329
-1.4453835 0.058052603 0.27254388
-1.4485446 0.074900992 0.27328449
-1.4475697 0.091834337 0.27328449
-1.4470167 0.10017017 0.27328449
-1.4424771 0.1084604 0.27254388
-1.4457465 0.11708392 0.27328449
-1.4411321 0.12506898 0.27254388
-1.4443018 0.13372959 0.27328449
-1.4376398 0.1414685 0.27217358
-1.4348202 0.149793 0.27180329
-1.441748 0.15891577 0.27328449
-1.4349228 0.16678765 0.27217358
-1.4378402 0.17552574 0.2729142
-1.4309888 0.18280621 0.27180329
-1.4337749 0.19181584 0.27254388
-1.4333788 0.20885186 0.2729142
-1.4379817 0.21798776 0.27402511
-1.4347609 0.22596051 0.27365479
-1.4353753 0.23453729 0.27402511
-1.4281873 0.24181619 0.2729142
-1.4247912 0.24994732 0.27254388
-1.4349313 0.26025382 0.2747657
-1.427613 0.26742843 0.27365479
-1.4356492 0.27776197 0.27550632
-1.4282929 0.28462344 0.27439541
-1.4227284 0.29230297 0.27365479
-1.4250286 0.30992493 0.2747657
-1.4270536 0.32788759 0.27587661
-1.4288526 0.34593979 0.27698752
-1.4211754 0.35249513 0.27587661
-1.4228681 0.36189121 0.27661723
-1.4169563 0.36908945 0.27587661
-1.4220914 0.38797328 0.27772814
-1.4216571 0.39693379 0.27809843
-1.4154969 0.40428349 0.27735785
-1.4169905 0.41328341 0.27809843
-1.4145131 0.42168468 0.27809843
-1.412061 0.42982465 0.27809843
-1.4095619 0.43795034 0.27809843
-1.4181788 0.44987279 0.28032029
-1.4099543 0.45621824 0.27920935
-1.4129026 0.46617883 0.28032029
-1.4157828 0.47618848 0.2814312
-1.4111575 0.48369759 0.28106087
-1.4082624 0.49206299 0.28106087
-1.4091082 0.50148374 0.28180149
-1.409803 0.51117659 0.28254211
-1.4049916 0.51860738 0.28217179
-1.4002333 0.52575535 0.28180149
-1.4025964 0.53616053 0.2829124
-1.4049804 0.54636699 0.28402331
-1.4090235 0.55758744 0.28550452
-1.402142 0.56422609 0.28476393
-1.3988692 0.57229245 0.28476393
-1.4028088 0.58335853 0.28624514
-1.4012361 0.59219348 0.28661543
-1.3906128 0.60696584 0.28587484
-1.4067162 0.63367945 0.29068878
-1.4013677 0.64070886 0.29031849
-1.3921932 0.64652997 0.28920758
-1.3937798 0.65705186 0.29031849
-1.3877691 0.67416382 0.29068878
-1.3869429 0.69362116 0.29217002
-1.3933181 0.70717639 0.29439184
-1.3841039 0.71224916 0.29328093
-1.3833374 0.7222693 0.29402152
-1.3861024 0.73390347 0.29550275
-1.3834544 0.74304575 0.29587305
-1.3810092 0.7517004 0.29624334
-1.3868481 0.76558131 0.29846516
-1.3875612 0.77643549 0.2995761
-1.3847759 0.78538394 0.2999464
-1.380091 0.79358751 0.2999464
-1.3822899 0.8054812 0.3014276
-1.3742429 0.81143057 0.30068702
-1.3715281 0.83128148 0.30216822
-1.3749447 0.844549 0.30401975
-1.3683889 0.85141575 0.30364943
-1.3649654 0.87158972 0.30513066
-1.3684835 0.88429564 0.30698216
-1.3630562 0.89263868 0.30698216
-1.3724754 0.91048998 0.31031492
-1.3559469 0.91047162 0.30772278
-1.3403513 0.92292118 0.30661187
-1.3238882 0.92252702 0.30401975
-1.2991205 0.91676831 0.2995761
-1.2873006 1.1668435 0.32734892
-1.2980598 1.2045439 0.33364406
-1.2980528 1.2189527 0.33549559
-1.2952855 1.2304696 0.3366065
-1.2952627 1.2447187 0.33845803
-1.2908908 1.2548981 0.33919865
-1.2906485 1.2692026 0.34105015
-1.2803079 1.2740663 0.34030956
-1.2881852 1.2967572 0.34438288
-1.2834493 1.3069597 0.3451235
-1.280557 1.3344197 0.34845623
-1.2780255 1.3476998 0.34993747
-1.2702422 1.3550383 0.34993747
-1.2717679 1.3724232 0.35252959
-1.2636014 1.3799458 0.35252959
-1.2635462 1.3959435 0.35475141
-1.2567958 1.4046625 0.35512173
-1.2564971 1.4207113 0.35734355
-1.2495872 1.4294043 0.35771385
-1.2552154 1.4531553 0.3617872
-1.2506536 1.4648448 0.36289811
-1.2482755 1.4797519 0.36474964
-1.2425094 1.4897193 0.36549023
-1.2411467 1.5061669 0.36771205
-1.2361747 1.5178622 0.36882296
-1.2348061 1.5341433 0.37104478
-1.228127 1.5445205 0.3717854
-1.2325687 1.5685676 0.37585875
-1.2213777 1.5723228 0.37511814
-1.2227942 1.5935763 0.37845087
-1.217158 1.605291 0.37956178
-1.2158577 1.6234976 0.38215393
-1.2111632 1.6367931 0.38363513
-1.2063557 1.6500882 0.38511637
-1.2025859 1.6649753 0.38696787
-1.1998261 1.6814734 0.38918969
-1.1943554 1.6949902 0.39067093
-1.1980469 1.7211984 0.39511457
-1.1881138 1.72807 0.39511457
-1.1877732 1.7497252 0.3984473
-1.1798649 1.7598022 0.39918792
-1.1805604 1.782956 0.40289095
-1.1734986 1.7946608 0.40400186
-1.1706055 1.8129479 0.40659401
-1.167221 1.8314644 0.40918612
-1.1639804 1.8498012 0.41177827
-1.1540198 1.8583454 0.41214857
-1.1518431 1.8781651 0.41511101
-1.1498119 1.8978175 0.41807345
-1.1469356 1.9201905 0.42140618
-1.1378534 1.9301507 0.42214677
-1.1395662 1.958757 0.42696074
-1.1279228 1.9654849 0.42696074
-1.1314585 1.9974053 0.43251529
-1.1205444 2.0058002 0.43288559
-1.1175112 2.0277126 0.43621832
-1.1086301 2.0392957 0.43732926
-1.1067222 2.0648935 0.44140258
-1.1039957 2.0886097 0.44510564
-1.1019408 2.1141052 0.44917899
-1.0924414 2.1256611 0.45028991
-1.0731528 2.1486535 0.45251173
-1.0551771 2.144403 0.45028991
-1.0643008 2.22735 0.46510208
-1.0569227 2.2460749 0.46769419
-1.0538876 2.2735229 0.47213784
-1.0448571 2.2884946 0.47398937
-1.0401225 2.3122187 0.4776924
-1.0327485 2.3327274 0.48065484
-1.0251675 2.3532298 0.48361728
-1.0216664 2.3825777 0.48843122
-1.013276 2.401098 0.49102336
-1.0050371 2.421591 0.4939858
-1.0033888 2.4562778 0.49991065
-0.99099261 2.4676602 0.50102156
-0.98787755 2.502748 0.50694644
-0.97957528 2.5228834 0.50990885
-0.97369355 2.5525246 0.51472282
-0.96449524 2.572813 0.51768523
-0.95985049 2.6059899 0.52323979
-0.94749993 2.6188676 0.52472103
-0.94227082 2.6520615 0.53027558
-0.93169278 2.6724532 0.53323805
-0.92710245 2.7093875 0.5395332
-0.91475993 2.7260213 0.54175502
-0.90812862 2.7572224 0.54693931
-0.89778864 2.7812667 0.55064231
-0.8888706 2.8088775 0.55508596
-0.87966406 2.836477 0.5595296
-0.84979683 2.8578727 0.56175148
-0.81458712 2.8558464 0.5595296
-0.77807134 2.8578634 0.55804843
0.01526593 8.7467241 -1.4370363
0.064087428 8.7425556 -1.4363878
0.11596537 8.7420216 -1.4363878
0.16635114 8.7431822 -1.436712
0.21832949 8.7459869 -1.4373605
0.26869887 8.7445841 -1.4373605
0.32080218 8.7487526 -1.4383332
0.36990917 8.7527399 -1.4393059
0.42040962 8.7524347 -1.4396302
0.52096552 8.7430716 -1.4389817
0.57449329 8.7416954 -1.4393059
0.62372816 8.744256 -1.4402786
0.67438436 8.7444544 -1.4409271
0.72642618 8.7422647 -1.4412514
0.77763945 8.7477655 -1.4428725
-3.4152424 8.6834288 -1.5330116
-3.3572512 8.6869745 -1.5300934
-3.3015559 8.6914072 -1.5274994
-3.2438505 8.6899405 -1.5239328
-3.1869514 8.6899509 -1.5206904
-3.1308286 8.6914511 -1.5177722
-3.0732775 8.6931305 -1.5148541
-3.0179813 8.6957712 -1.5122602
-2.9612386 8.6985817 -1.5096662
-2.9076061 8.7000103 -1.5070723
-2.8516273 8.7039824 -1.5048026
-2.7948091 8.6995935 -1.501236
-2.7405074 8.7023697 -1.4989662
-2.6853287 8.7071638 -1.4970208
-2.629998 8.7054825 -1.4941026
-2.5779755 8.7086811 -1.4921572
-2.52545 8.7096748 -1.4898875
-2.4689708 8.7135468 -1.4879421
-2.4124796 8.710927 -1.4850239
-2.3581424 8.7094374 -1.48243
-2.3049119 8.7114277 -1.4804845
-2.2527244 8.7169151 -1.4791876
-2.2015896 8.7197933 -1.4775664
-2.1445112 8.7177477 -1.4749725
-2.0915031 8.7184401 -1.473027
-2.0381088 8.7168903 -1.4707572
-1.9850324 8.7230577 -1.4697846
-1.9326245 8.7247114 -1.4681634
-1.8798478 8.724122 -1.4662179
-1.8279511 8.7270784 -1.464921
-1.775296 8.7258587 -1.4629755
-1.7219567 8.7284946 -1.4616785
-1.6701727 8.7305136 -1.4603816
-1.6165391 8.7305679 -1.4587604
-1.5660112 8.7297478 -1.4571391
-1.5143566 8.7308445 -1.4558423
-1.4618689 8.7357845 -1.4551938
-1.4114823 8.7340708 -1.4535725
-1.3581123 8.732543 -1.4519513
-1.3048102 8.730689 -1.4503301
-1.2557479 8.7358866 -1.4500059
-1.2025403 8.7334089 -1.4483846
-1.151446 8.7343206 -1.4474119
-1.1006278 8.7368917 -1.4467635
-1.0480578 8.7373905 -1.4457908
-0.99879473 8.7391863 -1.4451423
-0.94649315 8.7410345 -1.4444938
-0.8953284 8.7384882 -1.4431968
-0.84326822 8.741683 -1.4428725
-0.79371846 8.7383947 -1.4415756
-0.74473435 8.7407246 -1.4412514
-0.69086015 8.7392082 -1.4402786
-0.64065897 8.7450113 -1.4406029
-0.588489 8.7447205 -1.4399544
-0.53775007 8.7420549 -1.4389817
-0.48728096 8.7430372 -1.4386574
-0.43662146 8.7397852 -1.4376848
-0.38618982 8.7401838 -1.4373605
-0.33431804 8.742321 -1.4373605
-0.28396061 8.7441015 -1.4373605
-0.2334884 8.7416468 -1.436712
-0.18161061 8.742878 -1.436712
-0.13277858 8.7437563 -1.436712
-0.080890059 8.7443905 -1.436712
-0.028992139 8.7427425 -1.4363878
0.019832268 8.7407951 -1.4360635
0.070190869 8.7425089 -1.4363878
0.12362207 8.7438908 -1.436712
-11.978504 8.2726765 -8.1793318
-11.674588 8.2691288 -8.0382576
-11.371122 8.2525101 -7.8942451
-11.234838 8.2558279 -7.8335052
-10.999686 8.2798319 -7.7355375
-10.875471 8.2878885 -7.6826348
-10.74616 8.2846241 -7.6238542
-10.618459 8.2870998 -7.5680127
-10.49803 8.290844 -7.5160894
-10.391621 8.3014622 -7.4729838
0.016787393 8.744051 -1.2288985
0.065652601 8.7477818 -1.2294552
0.11753491 8.7452574 -1.2291769
0.16793977 8.7464161 -1.2294552
0.22003786 8.7531853 -1.2305685
0.27026513 8.7458334 -1.2297335
0.32223183 8.7460556 -1.2300118
0.42200202 8.753706 -1.2316819
0.47415403 8.755003 -1.2322387
0.52304351 8.7522182 -1.2322387
0.57675815 8.7528124 -1.2327954
0.62591636 8.7534056 -1.2333521
-3.0753884 8.7039356 -1.2973716
-3.0206633 8.7084064 -1.2954233
-2.9625545 8.707428 -1.2926397
-2.9082301 8.7069311 -1.2901347
-2.6863201 8.7157793 -1.2817843
-2.6309247 8.7140427 -1.2792791
-2.5782826 8.7153063 -1.2773308
-2.5262599 8.7181568 -1.2756606
-2.4686401 8.7181807 -1.2734339
-2.4142208 8.7231331 -1.2720422
-2.3603184 8.7235107 -1.2700937
-2.3064921 8.7235565 -1.2681453
-2.2532387 8.7251911 -1.2664752
-2.2025352 8.7299576 -1.2653618
-2.1453841 8.7278633 -1.2631351
-2.0927715 8.7304449 -1.2617433
-2.0392992 8.7288532 -1.259795
-1.9861482 8.7350073 -1.2589599
-1.9336656 8.7366333 -1.2575681
-1.8803965 8.7340717 -1.2556198
-1.8276268 8.7331257 -1.2539496
-1.7757195 8.7357445 -1.2528362
-1.7223176 8.7383547 -1.2517228
-1.6685759 8.7386942 -1.2503312
-1.6148908 8.7387047 -1.2489394
-1.5650127 8.7417383 -1.2481043
-1.5129492 8.7408495 -1.2467127
-1.4594227 8.7399063 -1.2453209
-1.4093262 8.7400999 -1.2442075
-1.3559185 8.7385235 -1.2428157
-1.3031633 8.7405396 -1.2419808
-1.2537646 8.7437601 -1.2414241
-1.1991616 8.7314253 -1.2386405
-1.1496271 8.7440777 -1.2394756
-1.0982586 8.7426939 -1.2383622
-1.0478864 8.7488737 -1.2383622
-0.99743557 8.7408161 -1.2364138
-0.9453364 8.7446117 -1.2361355
-0.89435107 8.7440004 -1.2353004
-0.84187824 8.7432394 -1.2344654
-0.79196101 8.7359705 -1.2327954
-0.74315804 8.7402573 -1.2327954
-0.68928611 8.7387104 -1.2319603
-0.63908798 8.7445107 -1.2322387
-0.5866555 8.7402449 -1.2311252
-0.53642708 8.7454557 -1.2314036
-0.48582852 8.7444448 -1.2308469
-0.43373343 8.7432184 -1.2302902
-0.38319573 8.7416134 -1.2297335
-0.33131549 8.7437334 -1.2297335
-0.28075922 8.7395582 -1.2288985
-0.23041859 8.7410307 -1.2288985
-0.17850408 8.7402639 -1.2286202
-0.12974547 8.7450848 -1.2291769
-0.077813849 8.7417402 -1.2286202
-0.025950007 8.7460089 -1.2291769
0.022886703 8.7420568 -1.2286202
0.073203489 8.7378187 -1.2280635
0.12672155 8.7471104 -1.2294552
-13.622923 8.1822424 -8.4495487
-13.45044 8.187645 -8.3725557
-13.123087 8.1970301 -8.2270193
-12.954843 8.1992083 -8.1519041
-12.664021 8.2209702 -8.0279636
-12.49993 8.2202921 -7.9547262
-12.378856 8.2400723 -7.9068398
-12.222856 8.2413168 -7.8382974
-11.939703 8.2489576 -7.7162347
-11.797942 8.2548723 -7.6561422
-11.650771 8.2553129 -7.5922942
-11.508324 8.2543507 -7.530324
-11.384854 8.2655106 -7.4805598
-11.254505 8.2733059 -7.4270401
-11.127357 8.2759638 -7.3735204
-10.871067 8.2875319 -7.2683587
-10.746304 8.2877264 -7.2157779
-10.623162 8.2937546 -7.1660137
-10.503164 8.2978764 -7.1171889
-10.382164 8.296876 -7.0664859
-10.268141 8.3090439 -7.0232944
-10.151798 8.3121099 -6.9763474
-10.039843 8.3174925 -6.9322171
-9.8100357 8.3195152 -6.8392615
-9.6976271 8.3206835 -6.7941923
-9.5947466 8.3317699 -6.7566347
-9.3885841 8.3443699 -6.6787024
-9.2760239 8.3404512 -6.6326942
-9.1754293 8.348999 -6.5960755
-9.0700245 8.3490839 -6.5547619
-8.9350405 8.3233175 -6.4927917
-8.8715315 8.3601084 -6.4815245
-8.759325 8.3501425 -6.4345775
-8.1958408 8.378088 -6.2317657
0.01987648 8.7602806 -1.0244492
0.068786949 8.7580462 -1.0242169
0.1208115 8.7614565 -1.0246814
0.17131041 8.7626009 -1.0249138
0.22315358 8.7554731 -1.0242169
0.27376366 8.7599993 -1.0249138
0.32588905 8.7621899 -1.0253783
0.37482104 8.7602339 -1.0253783
0.42546254 8.761898 -1.025843
0.47766513 8.7631855 -1.0263076
0.5266003 8.7603817 -1.0263076
-2.7437365 8.7285738 -1.0699803
-2.6860478 8.7257156 -1.0676572
-2.6311593 8.7258263 -1.0657989
-2.5801327 8.7327652 -1.0648696
-2.5280066 8.73559 -1.0634758
-2.4702728 8.7355776 -1.0616174
-2.4146872 8.73668 -1.0599912
-2.3607008 8.7370186 -1.0583652
-2.3072977 8.7389469 -1.0569713
-2.2544467 8.7424726 -1.0558099
-2.2031584 8.7452965 -1.0546484
-2.1459076 8.7431583 -1.0527899
-2.0932033 8.7457132 -1.0516285
-2.0405409 8.7479515 -1.0504669
-1.9841964 8.7405338 -1.0481439
-1.9333934 8.7498779 -1.0479116
-1.880044 8.7472734 -1.0462855
-1.827195 8.7462893 -1.0448917
-1.7759999 8.7527742 -1.044427
-1.7221117 8.7534142 -1.0432656
-1.6701784 8.7553816 -1.0423363
-1.6163907 8.755372 -1.0411749
-1.5653682 8.7525301 -1.0397811
-1.5142546 8.7574854 -1.0393164
-1.4609529 8.7584801 -1.0383873
-1.4094868 8.7508135 -1.0365288
-1.3572296 8.7570601 -1.0362965
-1.303485 8.753171 -1.0349027
-1.2523252 8.7445831 -1.0330443
-1.2006819 8.753829 -1.0332767
-1.1494681 8.7546902 -1.0325798
-1.0985314 8.7572231 -1.0321151
-1.0456038 8.7556982 -1.0311859
-0.99601305 8.7554798 -1.030489
-0.9429757 8.7513609 -1.0293275
-0.89235467 8.7546711 -1.0290952
-0.84000856 8.7558575 -1.0286306
-0.7907365 8.7564554 -1.0281659
-0.74114871 8.7528181 -1.0272368
-0.6875118 8.7552013 -1.0270045
-0.63649791 8.751091 -1.0260752
-0.58468932 8.7566957 -1.0263076
-0.53376126 8.7519875 -1.0253783
-0.48323536 8.7529325 -1.0251461
-0.43281436 8.7555714 -1.0251461
-0.38220569 8.7539492 -1.0246814
-0.3301774 8.7540779 -1.0244492
-0.27968889 8.753849 -1.0242169
-0.229214 8.7533293 -1.0239846
-0.17730717 8.7565212 -1.0242169
-0.12839903 8.7573748 -1.0242169
-0.076429754 8.7579832 -1.0242169
-0.024452254 8.7562952 -1.0239846
0.024457801 8.7582817 -1.0242169
0.074918188 8.7599821 -1.0244492
0.12839903 8.7573748 -1.0242169
-13.798274 8.189559 -8.0595713
-13.620587 8.1873102 -7.9823694
-13.42066 8.1759396 -7.8934965
-13.143735 8.2163067 -7.7857723
-12.966412 8.2128716 -7.7094679
-12.647639 8.2166119 -7.5757098
-12.462804 8.2021093 -7.494019
-11.938329 8.2541666 -7.2902408
-11.793978 8.2582321 -7.2318902
-11.65875 8.2670803 -7.1789255
-11.536894 8.2809429 -7.1331429
-11.406592 8.2873745 -7.0819736
-11.270836 8.2913733 -7.0281115
-11.152668 8.3008375 -6.9832263
-11.016147 8.3012619 -6.9284668
-10.880016 8.3003616 -6.8737068
-10.647074 8.3184061 -6.7866297
-10.51627 8.3141937 -6.7336655
-10.399882 8.316987 -6.6887803
-10.282215 8.3263731 -6.6456904
-10.052162 8.3336172 -6.5586133
-9.9382715 8.3362446 -6.5155234
-9.8205986 8.3343687 -6.4697409
-9.6024055 8.3443022 -6.3898454
-9.4950123 8.3503847 -6.351244
-9.3894682 8.3510237 -6.3117452
-9.2840853 8.3535624 -6.2731438
-9.1748857 8.3543596 -6.2327476
-9.0779791 8.3622627 -6.1995325
-8.9759054 8.367239 -6.1636243
-8.2980175 8.3882999 -5.926631
-8.201869 8.3901072 -5.8934159
-8.1114063 8.39081 -5.8619962
-8.023201 8.3987341 -5.8341675
-7.9342017 8.4019251 -5.8045435
-7.8429942 8.4017572 -5.7731237
-7.7566457 8.408741 -5.7461925
-7.6707563 8.4123373 -5.7183638
-7.5838876 8.4138966 -5.6896372
-7.5032005 8.4214077 -5.6653996
-7.4191365 8.4242468 -5.6384683
-7.3326459 8.4263296 -5.6106396
-7.2490292 8.4277744 -5.5837088
0.022975201 8.7758598 -0.81874949
0.072004572 8.777586 -0.81893528
0.17463982 8.776144 -0.81893528
0.22676656 8.7769442 -0.81912106
0.27725118 8.7735014 -0.81893528
0.32953313 8.7776718 -0.81949264
0.37855151 8.7756948 -0.81949264
-2.3629348 8.7574263 -0.84624553
-2.308903 8.757411 -0.84494501
-2.2554464 8.7589931 -0.84383035
-2.2040632 8.7617979 -0.84290141
-2.1476557 8.7634935 -0.84178668
-2.0934434 8.7602234 -0.84030044
-2.0415988 8.7663164 -0.83974308
-1.9869018 8.7666245 -0.83862835
-1.9338031 8.7662554 -0.83751369
-1.8811924 8.7675123 -0.83658475
-1.8286315 8.7684546 -0.83565581
-1.7761223 8.769083 -0.83472693
-1.7209848 8.7638359 -0.83324063
-1.669363 8.7677345 -0.83268327
-1.6155009 8.7676935 -0.83175439
-1.5658082 8.7726593 -0.83138281
-1.5135626 8.7717199 -0.83045387
-1.4585412 8.7628679 -0.82878184
-1.4089457 8.7669458 -0.82841027
-1.3559842 8.769248 -0.8278529
-1.3027524 8.7692614 -0.82710975
-1.252629 8.7685146 -0.82636666
-1.1994942 8.7679014 -0.82562351
-1.1476823 8.7647924 -0.82469457
-1.0969349 8.7692814 -0.82450879
-1.044407 8.7716818 -0.82413721
-0.99427873 8.7674847 -0.82320833
-0.94159627 8.7672901 -0.82265097
-0.89068246 8.7686052 -0.82227939
-0.83825421 8.7697716 -0.82190782
-0.78890491 8.7703505 -0.82153624
-0.73940802 8.7686663 -0.82097888
-0.68520904 8.7650785 -0.82023579
-0.63442719 8.7649069 -0.81986421
-0.58227235 8.766531 -0.81967843
-0.53153032 8.7657633 -0.81930685
-0.48103461 8.7686796 -0.81930685
-0.43042532 8.7693157 -0.81912106
-0.3799108 8.7716494 -0.81912106
-0.32770368 8.7697697 -0.81874949
-0.2771883 8.7715111 -0.81874949
-0.22635509 8.7610178 -0.81763482
-0.17448135 8.7681799 -0.81819212
-0.12559362 8.774991 -0.81874949
-0.073536545 8.7775736 -0.81893528
-0.021443523 8.7758636 -0.81874949
0.027576482 8.7778378 -0.81893528
0.078097016 8.773551 -0.8185637
0.13165991 8.7709188 -0.81837791
-11.144311 8.3006639 -6.5774765
-11.027021 8.3154926 -6.5372605
-10.648087 8.3251839 -6.3977876
-10.529077 8.3302927 -6.3550043
-10.407584 8.3291035 -6.3096542
-10.291905 8.3401709 -6.2702937
-10.173804 8.3419991 -6.2275105
-10.060201 8.3462086 -6.1872945
-9.7197962 8.3514929 -6.0657907
-9.6127748 8.3592033 -6.0298529
-9.501935 8.3623562 -5.9913478
-9.3956671 8.3624134 -5.9536986
-9.2842083 8.359539 -5.9134827
-9.1943531 8.3779583 -5.8878126
-8.4874659 8.3902559 -5.6490831
-8.3942623 8.3942623 -5.6191349
-8.3038378 8.4000454 -5.590898
-8.2071056 8.401329 -5.5592384
-8.1198645 8.4054298 -5.531857
-8.0298996 8.411623 -5.5044761
-7.9366546 8.4104023 -5.4736719
-7.8486242 8.4136744 -5.446291
-7.7605762 8.4188967 -5.4197655
-7.6754322 8.4233685 -5.3940954
-7.5904951 8.4271402 -5.3684258
-7.503366 8.4275141 -5.3410444
-7.4224572 8.4339504 -5.3179417
-7.3366928 8.4369249 -5.2922716
-7.2502713 8.4351721 -5.2648907
-7.1720047 8.4449787 -5.2443547
-7.0910158 8.4447556 -5.2195406
-7.0073066 8.4463387 -5.194726
-6.9298882 8.4516106 -5.1733346
-6.8526425 8.4562721 -5.1519432
-6.7718382 8.4586849 -5.12884
-6.6960888 8.4635229 -5.1083045
-6.6186457 8.4623432 -5.0852013
-6.5417876 8.4671383 -5.0646653
-6.4676819 8.4716282 -5.0449853
-6.3879094 8.4708881 -5.0218825
-6.3152533 8.4756489 -5.003058
-6.2406111 8.476943 -4.982522
-6.1693549 8.4820452 -4.9645529
-6.0950828 8.4822044 -4.9440169
-6.0205798 8.4843168 -4.9243369
-5.9477482 8.4848061 -4.9046569
-5.8771701 8.487711 -4.8866878
-5.805274 8.4910994 -4.8687186
-5.7350283 8.4929333 -4.85075
-5.6669607 8.4972486 -4.8344922
-5.5970454 8.498044 -4.8165236
-5.5282955 8.4998312 -4.7994103
-5.4572506 8.5005417 -4.7814412
-5.391748 8.5058765 -4.7668948
0.024531057 8.7845144 -0.61427552
0.073558979 8.7802505 -0.61399651
0.12563188 8.7776642 -0.61385697
0.17626531 8.7807846 -0.61413598
0.22852378 8.7855673 -0.61455452
0.27905756 8.7821121 -0.61441505
1.844231 8.8355398 -0.63115656
-2.0398669 8.7658062 -0.62934291
-1.9856107 8.7680273 -0.62864536
-1.934219 8.7754211 -0.62836629
-1.8819715 8.7786131 -0.62780827
-1.8285306 8.7756338 -0.62683165
-1.7755822 8.7742872 -0.62599462
-1.7211789 8.7729225 -0.62515754
-1.6679718 8.7771015 -0.62473899
-1.614415 8.7789955 -0.62418091
-1.5636096 8.7780542 -0.62348336
-1.5109947 8.7751169 -0.62264627
-1.4569345 8.7721205 -0.62180918
-1.4079192 8.7801199 -0.62180918
-1.3527505 8.7686024 -0.62041408
-1.3004006 8.7745018 -0.62027454
-1.2508116 8.7776775 -0.61999553
-1.1981626 8.7809916 -0.61971653
-1.146018 8.775877 -0.61887944
-1.0944661 8.7744131 -0.61832136
-1.0436757 8.7785892 -0.61818188
-0.99328393 8.7723866 -0.6173448
-0.94057226 8.7721758 -0.61692625
-0.88842267 8.7615681 -0.61581016
-0.83698362 8.772644 -0.6162287
-0.78672636 8.7632713 -0.61525208
-0.73827285 8.7734928 -0.61567062
-0.68419975 8.7718716 -0.61525208
-0.63366634 8.7756672 -0.61525208
-0.58171153 8.7812634 -0.61539161
-0.53088486 8.7804852 -0.6151126
-0.47997758 8.777421 -0.61469406
-0.42788318 8.7801142 -0.61469406
-0.37730652 8.7824335 -0.61469406
-0.32503656 8.78053 -0.61441505
-0.2238728 8.7836914 -0.61441505
-0.17155069 8.7748919 -0.61371744
-0.12265146 8.7836924 -0.61427552
-0.070494086 8.7802753 -0.61399651
-0.018398304 8.7845297 -0.61427552
0.030642906 8.7785101 -0.61385697
0.13485441 8.7795229 -0.61399651
-9.5076685 8.370348 -5.6398101
-9.41574 8.3832245 -5.6129656
-9.3062096 8.3822899 -5.5763593
-8.6049128 8.4089184 -5.3567214
-8.5080929 8.4135828 -5.3274364
-8.4181576 8.4210968 -5.3014054
-8.320715 8.4200573 -5.2704935
-8.2297544 8.4274549 -5.2444625
-8.1381359 8.4272861 -5.2159905
-8.0450974 8.4304895 -5.1883326
-7.9550347 8.432827 -5.1614881
-7.8652129 8.4344082 -5.1346436
-7.7741656 8.4365931 -5.1077986
-7.6922259 8.4447594 -5.085835
-7.603116 8.4441156 -5.0589905
-7.5203433 8.4495516 -5.0362129
-7.4341407 8.4502001 -5.0109954
-7.3503027 8.4555559 -4.9882183
-7.2681403 8.4589472 -4.9654408
-7.1847072 8.4629288 -4.9426637
-7.1044383 8.4637394 -4.9198866
-7.0225973 8.4677773 -4.8979225
-6.9435964 8.471344 -4.8767724
-6.8647881 8.4742823 -4.8556218
-6.783556 8.4763536 -4.8336582
-6.7062888 8.4794569 -4.8133216
-6.630692 8.4807949 -4.7929845
-6.5523291 8.4838419 -4.7726479
-6.4756455 8.4851284 -4.7523108
-6.3987842 8.4883909 -4.7327876
-6.325778 8.4928675 -4.714891
-6.2496843 8.4923716 -4.6945543
-6.1781049 8.4971924 -4.6774712
-6.106678 8.5014725 -4.6603885
-6.0286374 8.4988136 -4.6392384
-5.9596663 8.5049658 -4.6237822
-5.8856258 8.5030937 -4.604259
-5.8154769 8.5092096 -4.5888028
-5.7428598 8.5077324 -4.5700932
-5.6755209 8.5133028 -4.5554504
-5.6052952 8.5138035 -4.5383673
-5.5362482 8.5153103 -4.5220981
-5.4658842 8.5172596 -4.5058284
-5.3971796 8.5177317 -4.4895592
-5.3310394 8.5248232 -4.4765434
-5.2651033 8.524929 -4.4610877
-5.2017722 8.5252161 -4.446445
-5.1292677 8.5264187 -4.4301753
-5.0651493 8.5306835 -4.41716
-4.9993048 8.5313406 -4.4025173
-4.9330468 8.5339651 -4.3886886
0.027546918 8.7684269 -0.40890932
0.076518372 8.768137 -0.40890932
0.12854789 8.7675285 -0.40890932
0.1791244 8.7706375 -0.40909567
1.7331153 8.8012342 -0.4183192
1.8008192 8.8671513 -0.42195269
1.8543998 8.8765116 -0.42288437
1.9141836 8.8985548 -0.42446819
-1.6638514 8.7637577 -0.41599002
-1.6107342 8.7675819 -0.41571051
-1.560342 8.7685738 -0.41533786
-1.5081196 8.7675705 -0.41487202
-1.4550846 8.7704525 -0.4145925
-1.4041829 8.7666063 -0.4140335
-1.3512236 8.7688608 -0.41375402
-1.2979945 8.7688198 -0.41338134
-1.2481557 8.7699986 -0.41310185
-1.1944733 8.7653742 -0.41254285
-1.1429354 8.764184 -0.41217017
-1.0912039 8.7607088 -0.41170433
-1.0384924 8.7610779 -0.41142485
-0.98887318 8.7607861 -0.41114533
-0.93601936 8.7585535 -0.41077268
-0.88475502 8.7558479 -0.4104
-0.83240342 8.7569666 -0.41021368
-0.78294873 8.7555094 -0.40993416
-0.7335363 8.7537727 -0.40965468
-0.68004918 8.758091 -0.40965468
-0.62902248 8.753891 -0.409282
-0.57680231 8.7534828 -0.40909567
-0.52649647 8.7586546 -0.40918884
-0.47604179 8.7615414 -0.40918884
-0.42557132 8.7641373 -0.40918884
-0.1697849 8.7628307 -0.408723
-0.120759 8.7576494 -0.40844351
-0.068851009 8.766202 -0.40881616
-0.016826574 8.7644587 -0.408723
0.032116085 8.7624187 -0.40862983
0.082620837 8.7660837 -0.40881616
0.13616791 8.7654152 -0.40881616
-8.809864 8.418889 -5.0898952
-8.7214231 8.4310102 -5.0667701
-8.6239004 8.4333611 -5.038249
-8.5212336 8.4324636 -5.0074148
-8.4294844 8.4383163 -4.981977
-8.3353577 8.4407673 -4.9549975
-8.2271223 8.430645 -4.9203095
-8.1504335 8.445919 -4.9025798
-8.060689 8.452733 -4.8786836
-7.9662991 8.450676 -4.8509331
-7.8797507 8.4559135 -4.8278079
-7.7931805 8.4631538 -4.8054533
-7.7070394 8.4669561 -4.7823281
-7.6223483 8.4714203 -4.7599735
-7.5354099 8.4724331 -4.7360773
-7.4548063 8.4796562 -4.7160354
-7.366838 8.4805546 -4.6921391
-7.2830076 8.4822388 -4.6697845
-7.2003098 8.4873104 -4.6489716
-7.1195879 8.4878025 -4.627388
-7.040833 8.4957981 -4.6088877
-6.9602103 8.4976616 -4.5880747
-6.876318 8.4945765 -4.5649495
-6.7981262 8.5006409 -4.5464492
-6.7204466 8.5034571 -4.5271778
-6.641036 8.5001383 -4.5055943
-6.5634179 8.5043344 -4.4870939
-6.4885883 8.5082445 -4.4693646
-6.4113364 8.5112209 -4.4508643
-6.3346624 8.5109949 -4.4315929
-6.2592978 8.5116568 -4.4130926
-6.19173 8.5221853 -4.3999882
-6.1156402 8.5202246 -4.3807173
-6.0404267 8.5217361 -4.362988
-5.9711332 8.5276623 -4.3483419
-5.8956738 8.5239668 -4.3290706
-5.8231316 8.5267982 -4.3128829
-5.7543168 8.5311251 -4.2982368
-5.6846228 8.5334082 -4.2828197
-5.6150942 8.5351725 -4.2674031
-5.5437236 8.5333252 -4.2504444
-5.4760532 8.5396624 -4.23734
-5.4080205 8.5414343 -4.2226939
-5.3367028 8.5405102 -4.2065063
-5.2734132 8.5450544 -4.1941724
-5.2098107 8.5450983 -4.1802974
-5.1398549 8.5507746 -4.1671929
-5.0726299 8.5500793 -4.1525469
-5.0065165 8.5504875 -4.1386714
-4.9399977 8.5528784 -4.1255674
-4.8747849 8.5498743 -4.1109214
-4.8122044 8.5577393 -4.1009002
-4.7449303 8.5530386 -4.0854831
-4.6823006 8.5559416 -4.0739207
-4.6200538 8.5624619 -4.0638995
0.030639663 8.7775812 -0.20379077
1.6838076 8.8101196 -0.20824724
1.74225 8.8313589 -0.20898999
-1.4006897 8.7643871 -0.20606543
-1.2971599 8.7843494 -0.20615828
-1.2458305 8.7756205 -0.2057869
-1.1929256 8.7769146 -0.20564763
-1.1415811 8.7776918 -0.20550838
-1.0902672 8.7781687 -0.20536911
-1.0372189 8.7765417 -0.20518342
-0.98773837 8.778223 -0.20509058
-0.93499494 8.7779655 -0.20495132
-0.88402158 8.7792263 -0.20485847
-0.83153236 8.7803364 -0.20476563
-0.78212619 8.7808609 -0.20467278
-0.73157626 8.7671585 -0.20425498
-0.67723697 8.7614965 -0.20402288
-0.62662083 8.763258 -0.20397647
-0.57460785 8.7668219 -0.20397647
-0.52386677 8.7659941 -0.20388362
-0.47336987 8.7688656 -0.20388362
-0.4226647 8.7674522 -0.20379077
-0.37216106 8.7697411 -0.20379077
-0.32018703 8.7737932 -0.2038372
-0.26971 8.7774906 -0.20388362
-0.11798626 8.778841 -0.2038372
-0.065874793 8.7773876 -0.20379077
-0.01378787 8.7776241 -0.20379077
0.035243616 8.779563 -0.2038372
0.085750781 8.7732162 -0.20369793
0.1394684 8.7805262 -0.20388362
-8.4998837 8.4172106 -4.6711364
-8.2502346 8.4602356 -4.6143932
-8.1614733 8.4632692 -4.591114
-8.0712652 8.4697418 -4.568562
-7.9801936 8.4713373 -4.5445552
-7.8906426 8.4735308 -4.521276
-7.8048992 8.4818201 -4.5009065
-7.7183108 8.4852877 -4.4790821
-7.6257143 8.4811134 -4.4536204
-7.5445619 8.4886885 -4.4347062
-7.4611177 8.4928122 -4.4143367
-7.3751726 8.4961376 -4.39324
-7.2933617 8.5002995 -4.3735981
-7.2078547 8.5022182 -4.3525009
-7.1267481 8.5023642 -4.3321319
-7.044085 8.505765 -4.3124895
-6.9678392 8.5130358 -4.2957578
-6.8811989 8.5066767 -4.2724786
-6.8003592 8.5095205 -4.2535639
-6.7235236 8.5134573 -4.2361045
-6.6472092 8.514164 -4.2179174
-6.5669875 8.5151033 -4.1990032
-6.4929929 8.5201855 -4.1829987
-6.4165497 8.524332 -4.1662664
-6.3417749 8.5267649 -4.1495347
-6.2682896 8.5301218 -4.1335301
-6.1971655 8.5359306 -4.1189804
-6.1207542 8.5336361 -4.1007938
-6.0473938 8.5378809 -4.0855165
-5.9735541 8.5374613 -4.0687847
-5.8999209 8.5364752 -4.0520525
-5.8281584 8.5405588 -4.0375032
-5.7590885 8.544632 -4.0236812
-5.6901655 8.5481939 -4.0098591
-5.6224165 8.552804 -3.9967642
-5.5497322 8.5491037 -3.9800322
-5.4818163 8.5552197 -3.9676652
-5.4145226 8.5583115 -3.9545705
-5.3448944 8.5602665 -3.9407485
-5.2784224 8.5598555 -3.9269264
-5.212647 8.556469 -3.9123769
-5.1453533 8.5666924 -3.9021921
-5.0769272 8.5641336 -3.8876426
-5.0115242 8.565896 -3.8752754
-4.9438434 8.5664406 -3.8621809
-4.8802452 8.5663996 -3.8498137
-4.8138118 8.5675974 -3.8374467
-4.7508383 8.5707388 -3.8265345
-4.6870952 8.571806 -3.8148947
-4.6220012 8.5732307 -3.8032551
-4.5611763 8.5783253 -3.793798
-4.4978514 8.5780544 -3.7821584
-4.4363923 8.5806494 -3.7719736
-4.3718634 8.580265 -3.760334
-4.3146725 8.586237 -3.7523317
-4.251246 8.5866461 -3.7414196
-4.1375232 8.6048241 -3.7283249
1.4262573 8.8254967 0
1.4802573 8.8267403 0
-1.0373725 8.7910042 0
-0.9882583 8.7966614 0
-0.93519485 8.7944155 0
-0.88392729 8.7936859 0
-0.83135283 8.7947941 0
-0.78168947 8.7933235 0
-0.73206842 8.7915735 0
-0.67835045 8.7958813 0
-0.62725192 8.7936573 0
-0.5749281 8.795229 0
-0.5239051 8.7924051 0
-0.47314861 8.7932796 0
-0.42038658 8.783946 0
-0.36970389 8.7842236 0
-0.31757104 8.7862625 0
-0.26702157 8.7899456 0
-0.21629253 8.7873383 0
-0.16414391 8.7884674 0
-0.11503137 8.7872467 0
-0.062899381 8.7897749 0
-0.010731678 8.7839937 0
0.038318582 8.7819166 0
0.08891812 8.7835503 0
0.14260425 8.7848425 0
-7.894515 8.4806566 -4.2171082
-7.8046079 8.4844751 -4.1959033
-7.718945 8.4889612 -4.1760659
-7.6309781 8.4899473 -4.1548605
-7.5445056 8.4916086 -4.1343393
-7.4595079 8.493969 -4.1145024
-7.3744836 8.4983397 -4.0953493
-7.2899318 8.4993029 -4.0755119
-7.2065611 8.5037003 -4.0570431
-7.123951 8.5020418 -4.0372057
-7.0398164 8.5036306 -4.0180526
-6.9562092 8.5018539 -3.9982154
-6.8787661 8.5067043 -3.9817984
-6.7964935 8.5077276 -3.9633293
-6.7194314 8.5113297 -3.9469125
-6.645196 8.5146484 -3.9311795
-6.565865 8.5167208 -3.9140785
-6.4916482 8.5215063 -3.8990297
-6.413847 8.5238371 -3.8826127
-6.3366137 8.5229311 -3.8655117
-6.2640553 8.5274782 -3.8511467
-6.1916556 8.5314732 -3.836782
-6.117228 8.5318632 -3.821049
-6.0447712 8.5373363 -3.8073683
-5.9685707 8.5335083 -3.7902672
-5.899025 8.5383644 -3.7772706
-5.824954 8.5390635 -3.7622216
-5.755724 8.5428572 -3.7492249
-5.6856027 8.5445719 -3.735544
-5.6166854 8.5473356 -3.7225473
-5.5489488 8.5511656 -3.7102344
-5.4758072 8.5491257 -3.6951857
-5.4104047 8.5551081 -3.6842411
-5.3386459 8.5535822 -3.6698761
-5.2740259 8.5560675 -3.6582475
-5.2090836 8.5539789 -3.6452508
-5.1378222 8.5575361 -3.6329379
-5.0712032 8.5578833 -3.6206253
-5.0057006 8.55937 -3.6089966
-4.9407334 8.5645046 -3.598736
-4.8779435 8.565835 -3.5877912
-4.8104615 8.565135 -3.5754786
-4.7473874 8.5680399 -3.565218
-4.6844401 8.5705042 -3.5549574
-4.6183429 8.5700254 -3.5433288
-4.5565581 8.5732489 -3.5337522
-4.4957623 8.5777111 -3.5248597
-4.4324784 8.5767479 -3.5139151
-4.3695645 8.5794544 -3.5043385
-4.3097696 8.5802126 -3.4947617
-4.2479415 8.5837383 -3.4858694
-4.1868987 8.5844145 -3.4762928
-4.1268029 8.5863657 -3.4674003
-4.0629134 8.5835238 -3.4564555
-4.0062604 8.5914526 -3.4502993
-3.9457285 8.5904741 -3.4407227
-3.8883903 8.5918312 -3.4325142
-3.8289254 8.5958691 -3.4249897
-3.7695498 8.5995054 -3.4174652
-3.6526115 8.6008396 -3.4010484
-3.5935411 8.6032867 -3.3935239
-3.541862 8.6145315 -3.3901036
-3.103426 8.6723022 -3.3524814
-2.9889426 8.6706858 -3.3381166
-2.9211853 8.6401997 -3.3196476
-2.7606139 8.6553621 -3.3066506
-2.6961374 8.6244802 -3.2888658
-2.6372101 8.6151686 -3.2792892
-2.582689 8.6140127 -3.2731328
1.3802727 8.844533 0.20782946
1.4325222 8.8544512 0.20824724
1.4857022 8.8497381 0.20834009
1.5387024 8.8528538 0.20861863
1.5917877 8.8556519 0.20889714
1.8064374 8.8551884 0.20982558
-0.62500513 8.8054676 0.20495132
-0.57261199 8.8070259 0.2049049
-0.52116859 8.7982025 0.20462637
-0.47048619 8.8010578 0.20462637
-0.41978821 8.8036222 0.20462637
-0.36890885 8.801898 0.20453352
-0.31659928 8.8019342 0.2044871
-0.26571772 8.797616 0.20434783
-0.2151895 8.8049974 0.2044871
-0.16286214 8.8021212 0.20439425
-0.11367371 8.8008938 0.20434783
-0.061460417 8.8034134 0.20439425
-0.0092233233 8.807622 0.2044871
-7.2012825 8.5034885 -3.7652161
-6.9609365 8.5136938 -3.7159181
-6.8808236 8.5153265 -3.6992719
-6.8006191 8.5189886 -3.6832662
-6.7244492 8.5238018 -3.6685407
-6.6499386 8.5268602 -3.6538153
-6.5691576 8.5271454 -3.6371691
-6.4935393 8.5301647 -3.6224439
-6.4120612 8.5276585 -3.6051576
-6.34024 8.5340281 -3.5923529
-6.2640743 8.5337458 -3.5769873
-6.1925721 8.5390053 -3.5641825
-6.1201148 8.5421848 -3.5507376
-6.0452414 8.544323 -3.5366526
-5.9709644 8.5432787 -3.5219271
-5.8990541 8.5447826 -3.5084822
-5.8290353 8.5514565 -3.496958
-5.7564063 8.5503092 -3.4828727
-5.6892304 8.5564985 -3.4719889
-5.6200943 8.5590315 -3.4598243
-5.5490575 8.5578728 -3.4463794
-5.4797912 8.5619249 -3.4348552
-5.4101439 8.5613089 -3.4220507
-5.3421998 8.5659313 -3.4111667
-5.2744021 8.5633678 -3.3983619
-5.212234 8.5658817 -3.3881183
-5.1388159 8.5659657 -3.3753135
-5.070087 8.5628128 -3.3625088
-5.0063457 8.5673332 -3.3529053
-4.9412246 8.5722675 -3.3433018
-4.8764043 8.5700874 -3.3317776
-4.8134084 8.5773935 -3.3234546
-4.7492433 8.5784512 -3.3132107
-4.6861339 8.580718 -3.3036072
-4.62076 8.5816822 -3.2933636
-4.5588155 8.5847254 -3.2844002
-4.4943528 8.582305 -3.2735164
-4.4326773 8.5844784 -3.2645531
-4.3713465 8.5903673 -3.2568703
-4.3114028 8.5909386 -3.2479069
-4.2511096 8.5976887 -3.2408643
-4.1882401 8.5947771 -3.2306206
-4.128006 8.5965528 -3.2222977
-4.0672002 8.6003428 -3.2146149
-4.0063963 8.5995808 -3.2056515
-3.9465268 8.6001253 -3.1973286
-3.8906271 8.6047678 -3.1909261
-3.828712 8.6034689 -3.181963
-3.76771 8.6034746 -3.1736398
-3.7105944 8.6076317 -3.1672375
-3.6528165 8.6096735 -3.1601949
-3.5936353 8.6119633 -3.1531522
-3.5375624 8.6126204 -3.1461098
-3.4800067 8.6176491 -3.1403477
-3.421118 8.6187754 -3.1333051
-3.3653474 8.6183338 -3.1262624
-3.3073592 8.6204615 -3.1198602
-3.2496321 8.6180925 -3.1121774
-2.9044492 8.6005926 -3.0673609
-2.8551772 8.6130829 -3.0660806
-2.5340967 8.6379452 -3.0417516
-2.4816284 8.6373949 -3.0366297
-2.426259 8.6432724 -3.0334287
1.1730686 8.8388062 0.41580367
1.2785176 8.8504124 0.41701484
1.3306589 8.8508043 0.41738752
1.3847005 8.8526211 0.41785336
1.4357198 8.8546095 0.4183192
1.5408765 8.8470573 0.41878504
1.5910978 8.8341036 0.41859868
1.6515396 8.8677149 0.42064837
1.7029239 8.8681631 0.42111421
1.7578487 8.8696594 0.42167321
1.8128512 8.8708162 0.42223221
1.9237863 8.8903513 0.4241887
2.0302987 8.8932753 0.42539987
2.0877821 8.8943214 0.42605203
2.1420987 8.901947 0.42698371
-0.3655377 8.7948408 0.41049317
-0.26284963 8.8045044 0.41077268
-0.2123277 8.8138618 0.41114533
-0.15994924 8.8109713 0.41095901
-0.11073726 8.8117275 0.41095901
-6.4216199 8.5434742 -3.3350058
-6.3446341 8.5461721 -3.3213034
-6.2682056 8.5456257 -3.3070054
-6.1964765 8.5506668 -3.2950904
-6.1248975 8.5551662 -3.2831755
-6.0519795 8.5601826 -3.2712605
-5.9822073 8.5625477 -3.2593455
-5.9074402 8.5633221 -3.2462389
-5.8360996 8.5682459 -3.2349198
-5.7668357 8.5690279 -3.2230048
-5.6926408 8.5681133 -3.2098982
-5.6243453 8.5720253 -3.1991746
-5.5576911 8.5744658 -3.1884513
-5.4856653 8.5776958 -3.1771321
-5.4178224 8.5800905 -3.1664085
-5.3456073 8.5780621 -3.1538978
-5.279603 8.578517 -3.1431744
-5.2152581 8.5775928 -3.1324508
-5.1441078 8.5781803 -3.1211317
-5.0795031 8.5855503 -3.1127911
-5.0145674 8.5882845 -3.1032591
-4.9478626 8.5872469 -3.0925355
-4.883224 8.5890465 -3.0830035
-4.819097 8.5945587 -3.0746632
-4.7553058 8.5929413 -3.0645354
-4.6905131 8.5958691 -3.0555992
-4.624949 8.5966501 -3.0460672
-4.5637264 8.6012211 -3.0383224
-4.5008349 8.6019888 -3.029386
-4.437211 8.6006212 -3.0198541
-4.3746181 8.6005087 -3.0109179
-4.3147411 8.6050825 -3.0037689
-4.2534542 8.6099939 -2.9966199
-4.1944323 8.6113014 -2.9888752
-4.1325226 8.6136627 -2.9811304
-4.0682855 8.6104145 -2.9715984
-4.0104613 8.6122322 -2.9644494
-3.9497368 8.6150532 -2.9573004
-3.8913424 8.6143589 -2.9495556
-3.830848 8.6163645 -2.9424067
-3.7712324 8.6197042 -2.9358535
-3.713217 8.621994 -2.9293003
-3.6560607 8.6215048 -2.9221513
-3.5952461 8.6242933 -2.9155979
-3.5405002 8.6283417 -2.9102364
-3.4814565 8.6255751 -2.9024916
-3.4216638 8.628933 -2.896534
-3.3664792 8.6301222 -2.8905766
-3.3098819 8.6315413 -2.884619
-3.2525465 8.6349506 -2.8792572
-3.1954694 8.6338453 -2.872704
-3.1411228 8.6395464 -2.8685338
-3.0848906 8.639514 -2.8625762
