# .PCD v0.7 - Point Cloud Data file format
VERSION 0.7
FIELDS x y z
SIZE 4 4 4
TYPE F F F
COUNT 1 1 1
WIDTH 1472
HEIGHT 1
VIEWPOINT 0 0 0 1 0 0 0
POINTS 1472
DATA ascii
-2.4494724 -2.3693271 0.059486527
-2.3394568 -2.375541 0.05819796
-2.2582569 -2.3918023 0.057418417
-2.1834149 -2.3944631 0.056563251
-4.224308 -2.2009101 0.083143264
-4.1483078 -2.2163396 0.082096122
-4.0514107 -2.2190018 0.080630116
-3.9586153 -2.2213593 0.07923393
-3.8549361 -2.2336326 0.077767923
-3.7444363 -2.2400136 0.076162301
-3.63832 -2.2452197 0.07462649
-3.550544 -2.2610006 0.073474631
-3.4505184 -2.2647095 0.072043538
-3.3659277 -2.2762675 0.070926577
-3.2526004 -2.283252 0.069367498
-5.3230667 -2.1021795 0.099897571
-5.241859 -2.1114659 0.098641001
-5.1530061 -2.1176057 0.097244807
-5.0823975 -2.1312261 0.096197665
-4.9571905 -2.1394019 0.09424299
-4.8323421 -2.1454365 0.092288323
-4.7698755 -2.1576915 0.091380797
-4.6509285 -2.1627369 0.089530848
-4.5323868 -2.1657231 0.087680891
-4.450613 -2.1831222 0.086529031
-4.3617949 -2.1956625 0.085237555
-4.2929654 -2.1987126 0.084190406
1.8538963 -3.006397 0.18511227
1.9528421 -3.0243475 0.18867111
2.0496612 -3.0338914 0.19188979
2.1550887 -3.051585 0.19578882
2.2230861 -3.0569115 0.1980916
1.1578797 -2.9086137 0.16407323
1.2607062 -2.9270761 0.16703022
1.3507365 -2.9378731 0.16946383
1.44447 -2.9508166 0.17218529
1.5419337 -2.9665616 0.17522077
1.6469047 -2.9867516 0.17875347
1.7435745 -2.98841 0.18132664
0.36344719 -2.8076038 0.14837243
0.45469016 -2.8166831 0.1495343
0.55758035 -2.8258224 0.15095784
0.65243006 -2.8368592 0.15255931
0.75126565 -2.8546059 0.15470509
0.85149533 -2.8691158 0.15685086
0.94110096 -2.8756781 0.15857795
1.0476626 -2.8912721 0.16117381
-0.51362818 -2.7079368 0.14444724
-0.45503578 -2.7075939 0.14389771
-0.35081026 -2.7185037 0.14366221
-0.24689737 -2.7313654 0.14373547
-0.15204723 -2.7426867 0.14396575
-0.056814503 -2.751503 0.14423791
0.048865717 -2.7685747 0.14512761
0.15551293 -2.7836993 0.14612198
0.25381142 -2.7925079 0.14695935
0.31249079 -2.7947245 0.14737806
-1.4250765 -2.6079099 0.15575181
-1.3448827 -2.6097312 0.15386771
-1.247515 -2.618269 0.15200455
-1.1428425 -2.6312535 0.15035073
-1.0407852 -2.6436672 0.14890626
-0.94022274 -2.6560938 0.14767113
-0.84030545 -2.6642566 0.14641507
-0.74283397 -2.675236 0.14551489
-0.64564931 -2.6847343 0.14471939
-0.55909485 -2.6901612 0.14400238
-0.45349464 -2.6984031 0.14340052
-2.6460381 -2.503984 0.19092157
-2.536428 -2.5023355 0.18673469
-2.442827 -2.5127447 0.18366432
-2.3512061 -2.5227566 0.1807335
-2.257829 -2.525964 0.17755847
-2.1594095 -2.5379798 0.17464508
-2.0482774 -2.5482593 0.17134792
-1.9411297 -2.5572057 0.1682601
-1.8500761 -2.563787 0.16569564
-1.7612615 -2.5694363 0.16326202
-1.6502777 -2.5764437 0.16035737
-1.548079 -2.5921845 0.15823776
-1.476613 -2.5929124 0.15637983
-2.8490534 -2.4782553 0.1978997
-2.7420053 -2.4884884 0.19406174
-2.6663749 -2.4881756 0.19113091
-2.5664911 -2.497333 0.18767673
-6.3677521 -2.0150783 0.11658207
-6.254612 -2.0274203 0.11476702
-6.1378188 -2.0370226 0.11288217
-6.0287752 -2.047667 0.11113692
-5.9161091 -2.0555773 0.10932188
-5.8111682 -2.0646937 0.10764644
-5.6505127 -2.0738015 0.10506348
-5.5201974 -2.0914156 0.103039
-5.4010224 -2.089498 0.10108434
-6.3702006 -1.9670342 0.11637264
1.3982182 -3.1024833 0.29772401
2.4764409 -3.1010737 0.20798309
2.5575781 -3.1123705 0.21112324
2.6594045 -3.1235881 0.2149961
2.7560406 -3.147012 0.21923532
2.8404667 -3.1534989 0.22242782
2.9419417 -3.1757679 0.22687638
3.0066912 -3.1794868 0.22933616
0.86831474 -3.0082088 0.27393049
0.93757629 -3.0112739 0.27593508
1.0485082 -3.0292726 0.28046718
1.1518325 -3.0513258 0.28534791
1.2425601 -3.0638981 0.28926992
1.3368405 -3.0787439 0.29365674
1.435244 -3.0975878 0.29868275
2.2791007 -3.0665748 0.20023736
2.3565471 -3.0798004 0.20323797
2.4330335 -3.0896142 0.20609899
0.1505769 -2.9044027 0.25445119
0.24308261 -2.9161661 0.25602871
0.34608775 -2.9246016 0.25766724
0.45178133 -2.9383705 0.26010761
0.54830152 -2.9494169 0.2624695
0.64709723 -2.9611967 0.26519752
0.74991363 -2.9812944 0.26896262
0.81777847 -2.9882698 0.27105436
-0.76897269 -2.8012576 0.25414616
-0.64593059 -2.8065419 0.25196725
-0.55549222 -2.812984 0.2508691
-0.45612827 -2.8247418 0.25034615
-0.35721231 -2.8337269 0.24989292
-0.25914159 -2.8495708 0.25034615
-0.15019375 -2.8609154 0.25065991
-0.040836532 -2.8753839 0.25160122
0.059466559 -2.8910027 0.25299567
-1.9240248 -2.7023685 0.29022864
-1.8523585 -2.7060871 0.2869167
-1.7508931 -2.7096057 0.28225386
-1.6502062 -2.7168636 0.27811396
-1.5538166 -2.7256296 0.274497
-1.4467529 -2.7335947 0.27060118
-1.3430426 -2.7414398 0.26708877
-1.2507802 -2.7437406 0.26382044
-1.1524109 -2.7529843 0.26111859
-1.0478339 -2.7697649 0.25909659
-0.94248694 -2.7800288 0.25683054
-0.84774709 -2.7830479 0.25453836
-0.74865693 -2.7914352 0.25286785
-0.69501638 -2.7979579 0.25222871
-2.1127737 -2.682929 0.29876989
-2.0468729 -2.6934786 0.2959809
-1.9593658 -2.6928625 0.29136163
-1.8639209 -2.695863 0.28674239
-4.0273495 -2.4064369 0.24587432
-3.9307897 -2.4040751 0.2414781
-3.8476453 -2.4093301 0.23791926
-3.7406535 -2.4156787 0.23336603
-3.64048 -2.4227672 0.22917914
-3.5422707 -2.428997 0.22509694
-3.4484811 -2.4361405 0.22127642
-3.3610296 -2.4450107 0.21782225
-3.251894 -2.4535713 0.21349581
-3.1385672 -2.4547296 0.20882046
-3.0414732 -2.4654548 0.20519184
-2.9426303 -2.4712956 0.20138875
-5.1838298 -2.3416781 0.2981056
-5.0422058 -2.3414493 0.29135427
-4.9335699 -2.3542492 0.28648701
-4.8491583 -2.3546247 0.28250951
-4.7440319 -2.364641 0.27779925
-4.621397 -2.3638706 0.2720423
-4.5587163 -2.3721063 0.26932085
-4.4616203 -2.3806515 0.26502931
-4.3402557 -2.3742518 0.25927234
-4.2615857 -2.3884535 0.25602752
-4.1349111 -2.3929482 0.25037521
2.6733117 -3.3036222 0.37180641
2.7426991 -3.3176179 0.37659997
2.8429599 -3.3427496 0.38392106
2.9280565 -3.3469644 0.38906324
2.1709313 -3.2172022 0.33955878
2.2469091 -3.2327814 0.34443951
2.3405285 -3.2453778 0.35007557
2.4607248 -3.2665012 0.35780337
2.5686488 -3.2888079 0.36509541
2.6265762 -3.2926118 0.36849448
0.65380257 -3.1059432 0.38973817
0.76033437 -3.1235504 0.3947348
0.83191735 -3.1330683 0.39802527
1.476589 -3.1013031 0.300513
1.5499947 -3.1158671 0.30447859
1.6537322 -3.1319532 0.30986771
1.7457145 -3.1440685 0.31463221
1.842793 -3.1621859 0.32021019
1.9387178 -3.1722155 0.32526523
2.0453348 -3.195605 0.33194718
2.1091115 -3.1962073 0.33502668
-0.037596513 -3.0089533 0.36950788
0.04954252 -3.0183306 0.37066561
0.14446403 -3.0308247 0.37257895
0.25172129 -3.0453172 0.37521136
0.34914136 -3.0589235 0.3780387
0.44907579 -3.0778995 0.38193852
0.55102265 -3.095633 0.38608205
-1.0307894 -2.9012005 0.3780387
-0.96510798 -2.9062281 0.37600756
-0.85705137 -2.9144349 0.37301773
-0.74996483 -2.9237306 0.37062904
-0.64508647 -2.93239 0.36867914
-0.55178636 -2.945667 0.3679845
-0.45755824 -2.9509671 0.36668047
-0.35500073 -2.9650548 0.36668047
-0.25188774 -2.9771793 0.36687547
-0.14862701 -2.990478 0.36765543
-0.055357292 -2.9929891 0.36755794
-1.5316494 -2.8648467 0.39887837
-1.4585083 -2.8704307 0.39534414
-1.3502225 -2.8764427 0.39017689
-1.2430141 -2.8795166 0.38510713
-1.1529052 -2.8884633 0.3818776
-1.0583211 -2.8979654 0.37883085
-0.91803771 -2.8992877 0.37340766
-3.7435107 -2.6222081 0.39987054
-3.6445765 -2.6101716 0.39220083
-3.55211 -2.6187983 0.38609993
-3.446532 -2.6169035 0.37860453
-3.3360641 -2.6250937 0.37139967
-3.2269659 -2.6317594 0.36431101
-3.136704 -2.6314788 0.35821009
-3.0591667 -2.6395969 0.3535037
-2.9598382 -2.6459525 0.34734467
-2.8657689 -2.6527076 0.34165052
-2.7653294 -2.6508007 0.33514288
-2.6597316 -2.6580553 0.32898387
-2.556098 -2.663835 0.32299918
-2.4539187 -2.6669037 0.3170726
-2.3598568 -2.6747792 0.31207567
-2.2508154 -2.6802974 0.30622169
-2.1638813 -2.6893301 0.30199465
-5.9656425 -2.3043425 0.33515945
-5.8639402 -2.3122325 0.33034456
-5.7498569 -2.3125935 0.32479694
-5.6448798 -2.3162849 0.31977269
-5.5434155 -2.321135 0.3149578
-5.4462547 -2.3252718 0.31035221
-5.3625369 -2.3328104 0.30647936
-5.2639565 -2.3337636 0.30176914
-7.2700801 -2.2407362 0.39869532
-7.115231 -2.2475202 0.39105427
-6.9682493 -2.2547131 0.38383189
-6.827208 -2.2618496 0.37692356
-6.6826301 -2.265846 0.36980587
-6.5496569 -2.2718632 0.36331621
-6.4357543 -2.2828131 0.35787326
-6.3051243 -2.2861578 0.35148829
-6.1845312 -2.2901821 0.34562665
-6.0787244 -2.2993836 0.3406024
2.2356853 -3.3931715 0.49893311
1.1689441 -3.2037766 0.41874307
1.2063435 -3.2026343 0.4202055
1.4669083 -3.2602885 0.43897334
1.557793 -3.2780304 0.44563556
1.6370186 -3.2688217 0.44888541
-0.30855539 -3.1077907 0.49464577
-0.24314323 -3.1130443 0.49458322
-0.14623858 -3.1269665 0.49581903
-0.048373815 -3.1375568 0.49702358
0.050025858 -3.1481805 0.49871308
0.88411832 -3.1538014 0.40216884
0.95797515 -3.1616449 0.40564212
1.0605286 -3.1784739 0.4114309
1.1276731 -3.1933043 0.41581821
1.2472442 -3.1555073 0.41663066
1.3647499 -3.149226 0.42142418
-0.83901817 -3.0429244 0.49996457
-0.75152922 -3.0551109 0.49832201
-0.65329981 -3.0635169 0.49614754
-0.54465073 -3.0762606 0.49483353
-0.44730124 -3.0857878 0.49386364
-0.36156633 -3.0965083 0.49378538
-2.908504 -2.8234625 0.4977144
-2.8487427 -2.8234074 0.49247402
-2.7547379 -2.8266449 0.48463377
-2.6367548 -2.8221676 0.47423425
-2.5546188 -2.8311617 0.46822202
-2.447372 -2.8291163 0.45932555
-2.3483162 -2.8324897 0.45176965
-2.2509565 -2.8334239 0.44433564
-2.1447423 -2.8387775 0.43686095
-2.0571682 -2.8434598 0.43092999
-1.9501345 -2.8375158 0.42276475
-1.8406789 -2.8443167 0.41600099
-1.7464947 -2.8487713 0.41029346
-1.6586337 -2.8581827 0.40576398
-1.5810677 -2.8617091 0.40143761
-4.0416965 -2.6070952 0.42078793
-3.8357782 -2.6077709 0.40579712
-3.7879627 -2.6141162 0.40265954
-5.0389657 -2.5741317 0.49504462
-4.9713707 -2.5835223 0.49016389
-4.8686638 -2.5734744 0.48179695
-4.7718325 -2.5854411 0.47482449
-4.6613464 -2.5880823 0.46645755
-4.5545845 -2.5909209 0.4584392
-4.4378901 -2.5860255 0.449375
-4.3438563 -2.5924525 0.44257686
-4.2438068 -2.5924644 0.43508148
-4.1435614 -2.5916402 0.42758608
-3.9345613 -2.5963361 0.41242099
-3.8803775 -2.5986671 0.40858611
2.7400908 -3.5133309 0.54707146
2.8304853 -3.5278788 0.55535859
2.9056263 -3.5449295 0.5627926
1.5271087 -3.4306321 0.59476388
1.6469417 -3.4098997 0.59976971
2.2830055 -3.4141786 0.50429535
2.3396521 -3.4213738 0.50892639
2.4466612 -3.4475706 0.51908213
2.5526524 -3.4685793 0.52879107
2.6446023 -3.4903412 0.53768754
0.8873055 -3.3022459 0.54157615
0.96478969 -3.3140042 0.54668629
1.0566831 -3.3265903 0.5528394
1.159063 -3.3620961 0.56326836
1.2562088 -3.3753111 0.57043827
0.37621292 -3.2123425 0.51227075
0.45671463 -3.2206306 0.51521689
0.55022901 -3.2305291 0.51904953
0.64752811 -3.2522268 0.52522874
0.74679476 -3.2734387 0.53179896
0.83411431 -3.2847843 0.53677881
0.90818578 -3.2904172 0.54063749
0.050277721 -3.1651225 0.50137246
0.14964157 -3.1735165 0.50321841
0.25044021 -3.1847489 0.50598729
0.31797704 -3.1941805 0.508412
-2.2711191 -3.0029576 0.5963282
-2.1299143 -3.0059485 0.58350056
-1.9600405 -3.0021126 0.56785709
-1.7295016 -3.0007055 0.54856354
-1.6512527 -3.0092132 0.54366189
-1.5571086 -3.0086069 0.53657019
-1.4552 -3.0137467 0.53007817
-1.3550524 -3.0184486 0.52405548
-1.2569935 -3.0221112 0.5184238
-1.1506511 -3.0303307 0.5134179
-1.0466174 -3.0402133 0.5092724
-0.95395833 -3.0431306 0.50512689
-0.86024904 -3.0493653 0.50184178
-2.3016484 -2.9995666 0.59883112
-2.2163076 -2.9945986 0.59007078
-2.1665549 -2.9918787 0.58506489
-2.0461378 -2.9960079 0.57463598
-1.9543903 -2.9939046 0.56629276
-1.8529025 -2.9951894 0.55784529
-1.7816337 -2.994657 0.5519008
-3.9269218 -2.808223 0.59277248
-3.8302965 -2.8197095 0.58399791
-3.7207336 -2.8007207 0.57181096
-3.6615601 -2.8161597 0.56717992
-3.5567837 -2.8149164 0.55694294
-3.4570925 -2.8154297 0.54743707
-3.3636746 -2.8178754 0.53878438
-3.2663808 -2.8143563 0.52940041
-3.165062 -2.8254499 0.52095085
-3.0531745 -2.8222356 0.51051068
-2.9738855 -2.8270006 0.5038079
-6.2591639 -2.5645182 0.59178752
-6.1413903 -2.56774 0.58237469
-6.0261774 -2.5691395 0.57313615
-5.9208341 -2.5719948 0.56476921
-5.8025336 -2.5689061 0.5551821
-5.6529393 -2.5736611 0.54341608
-5.4966307 -2.5724707 0.53095281
-5.3993993 -2.5730681 0.52328306
-5.2589912 -2.5728118 0.5122143
-5.1280365 -2.5746496 0.50201708
2.4722111 -3.6459553 0.6976977
0.48163366 -3.4096787 0.66935796
0.55682313 -3.4229908 0.67412817
0.65886569 -3.4438052 0.68156976
0.76312935 -3.4644406 0.68958372
0.8553105 -3.4765975 0.69594401
0.90623039 -3.4765844 0.69836092
1.578236 -3.4487565 0.60070837
1.6461363 -3.4481118 0.60519284
-0.21373166 -3.3051066 0.64378953
-0.15658087 -3.3111553 0.64436197
-0.053034138 -3.3263447 0.64668983
0.051250044 -3.3355649 0.64846438
0.14467007 -3.3539438 0.65256679
0.25117633 -3.3680649 0.65653557
0.35944375 -3.3895931 0.66258425
0.43130717 -3.3926632 0.66477859
-1.5356236 -3.2044897 0.6907286
-1.4319611 -3.2156346 0.68424106
-1.3382175 -3.2126851 0.67651325
-1.2466599 -3.2106049 0.66948515
-1.1591154 -3.2158976 0.66449231
-1.0480963 -3.2193513 0.65813839
-0.94010055 -3.2258134 0.65313917
-0.8441878 -3.2304213 0.64903677
-0.7522074 -3.2424927 0.64703333
-0.64859092 -3.2545242 0.64508706
-0.54446495 -3.2638633 0.64321709
-0.45298892 -3.2728567 0.64226305
-0.35096067 -3.2872787 0.6426447
-0.25892475 -3.2926311 0.6420086
-1.6263502 -3.1925366 0.69645286
-1.5852444 -3.1934543 0.69301826
-1.4779011 -3.1970055 0.6846227
-3.1678116 -3.0081434 0.69190967
-3.0617144 -3.0103371 0.68007272
-2.9582903 -3.0113702 0.66860092
-2.8542271 -3.009264 0.65692043
-2.7553549 -3.0078735 0.64607435
-2.6596918 -3.0071118 0.63585401
-2.5821965 -3.0031404 0.62730223
-2.4400418 -3.0035415 0.61291021
-2.5239031 -2.9982398 0.62073195
-2.468488 -2.9955807 0.61478746
-2.3650236 -2.9952166 0.6044628
-4.9305582 -2.8226147 0.6975801
-4.8420992 -2.8170378 0.68783057
-4.7625055 -2.8154161 0.67929971
-4.6413183 -2.809135 0.66613781
-4.5325727 -2.8081241 0.6546821
-4.4653234 -2.8108759 0.64785743
-4.3658257 -2.8118529 0.63762045
-4.2601128 -2.8068936 0.6264084
-4.1651607 -2.8061471 0.61665893
-4.0375199 -2.8028975 0.60349703
-7.5148768 -2.5436456 0.69410831
-7.3538504 -2.546499 0.68086064
-7.1894011 -2.5459003 0.66726434
-7.0478063 -2.5512702 0.65575981
-6.9125452 -2.5556567 0.64477819
-6.7752461 -2.5588009 0.63362223
-6.6252332 -2.5551364 0.62124616
-6.4997087 -2.5589929 0.61113608
-6.3675098 -2.5571411 0.60032874
2.7500992 -3.7135561 0.73190469
2.8526921 -3.7419834 0.7452538
2.9005003 -3.7501025 0.75088543
2.541153 -3.6657157 0.70645809
2.633435 -3.6877351 0.71772134
0.99373847 -3.5117972 0.70942783
1.0477309 -3.5151327 0.71298963
1.1506763 -3.5429895 0.72412014
1.2631474 -3.5498242 0.73242033
1.6710134 -3.5900412 0.76972347
0.94901121 -3.4915843 0.70332193
-2.5229325 -3.2146873 0.79433787
-2.4459362 -3.2072368 0.78403413
-2.3411906 -3.2058003 0.7716316
-2.2585442 -3.2070456 0.76247281
-2.1449592 -3.208847 0.75026095
-1.9836383 -3.2029595 0.73232496
-1.8337319 -3.203145 0.7174418
-1.7027279 -3.2037141 0.70523006
-1.6730464 -3.2016032 0.70217711
-2.3858001 -3.1973011 0.77544779
-2.1872764 -3.1992254 0.7533139
-2.0551946 -3.1925561 0.73804921
-1.9187868 -3.196517 0.72469258
-1.874561 -3.1976686 0.72049475
-1.7545208 -3.1935112 0.70828301
-3.9443429 -3.0302696 0.78780401
-3.8329139 -3.0302472 0.77388132
-3.7633138 -3.0398662 0.76621598
-3.6612287 -3.0211799 0.75182402
-3.5581903 -3.0196512 0.73915285
-3.4621243 -3.0222547 0.72788954
-3.3580723 -3.0161085 0.7149055
-3.2704606 -3.0199006 0.70505011
-5.7587242 -2.8373899 0.78825092
-5.6558681 -2.8347175 0.77679521
-5.5563617 -2.8335512 0.76582694
-5.4465785 -2.8256507 0.75339627
-5.3740497 -2.8358128 0.74608409
-5.2776532 -2.8310387 0.73535961
-5.1758528 -2.8231385 0.72390389
-5.0818601 -2.816921 0.71342313
-4.9963517 -2.8152995 0.70416105
-8.6474476 -2.5286906 0.78823656
-8.4368391 -2.531173 0.77063107
-8.2361488 -2.5337703 0.75389719
-8.0320415 -2.5324931 0.73681468
-7.8378434 -2.5315545 0.7206037
-7.6648655 -2.5349119 0.70631015
0.99015909 -3.7030785 0.88495743
1.0457444 -3.7052538 0.88885665
1.1075244 -3.7246122 0.8971048
0.55919564 -3.6117177 0.84379137
0.65092707 -3.6211216 0.84941512
0.74680322 -3.6418149 0.85830075
0.85761178 -3.6618679 0.86831105
0.94322705 -3.6800923 0.87708414
-0.033849623 -3.5049121 0.80922395
0.063863516 -3.5174887 0.81222326
0.14972983 -3.525883 0.81477267
0.24938622 -3.5436783 0.82017154
0.35010245 -3.5606093 0.82602024
0.45366621 -3.5881882 0.83501828
-1.4050102 -3.4003847 0.84941518
-1.2962399 -3.4016404 0.84041715
-1.1641003 -3.4058769 0.83096921
-1.0347824 -3.4093125 0.82257104
-0.91949415 -3.4112937 0.81567252
-0.84478641 -3.4159222 0.81241071
-0.74775231 -3.4269977 0.80982381
-0.64934891 -3.4331145 0.80667448
-0.55225801 -3.4431581 0.80509984
-0.4555845 -3.450398 0.80352515
-0.35999256 -3.4626553 0.8037501
-0.25133461 -3.4735389 0.80406505
-0.14291963 -3.483259 0.8048749
-0.082975879 -3.495055 0.80712438
0.01466046 -3.4999065 0.80802417
-1.9259393 -3.386137 0.89935434
-1.851817 -3.3927317 0.89238083
-1.7404486 -3.3816273 0.87805891
-1.6520056 -3.3809345 0.868761
-1.5539379 -3.3868947 0.86032528
-1.4580175 -3.3934898 0.85271448
-1.3474556 -3.3928013 0.84281659
-1.2382036 -3.390646 0.83336872
-1.1426705 -3.3951702 0.82707
-1.0818704 -3.3960865 0.82287097
-0.9673301 -3.3980398 0.81567252
-3.2356315 -3.2445827 0.89069641
-3.1496787 -3.2478828 0.87943864
-3.0549841 -3.2406421 0.86570036
-2.9463358 -3.2355344 0.85062647
-2.8433805 -3.2341967 0.83707905
-2.7533236 -3.2213287 0.82372248
-2.6519535 -3.2145383 0.81004781
-2.5764387 -3.2136216 0.80063456
-4.7537584 -3.0582066 0.8952744
-4.6416955 -3.0548258 0.88010031
-4.5362768 -3.0527258 0.86602122
-4.4177885 -3.0408053 0.84943914
-4.3608274 -3.0466835 0.842556
-4.2612038 -3.0438595 0.82941556
-4.1466389 -3.027108 0.81314635
-4.0669765 -3.0351915 0.80376029
-6.6689515 -2.8376727 0.88988996
-6.5784516 -2.8522046 0.88038415
-6.451252 -2.8507228 0.86600357
-6.3334494 -2.8516812 0.85284168
-6.208735 -2.8478255 0.83870482
-6.0843883 -2.8423698 0.82456797
-5.9675956 -2.8387299 0.81140608
-5.8802381 -2.8464174 0.80214399
-9.0889349 -2.5205848 0.82519054
-8.8450089 -2.5195673 0.80462182
2.9457035 -4.0114288 0.96740162
2.5677755 -3.9060926 0.90863246
2.6413226 -3.9290674 0.92027175
2.7326651 -3.9463613 0.933056
2.8410983 -3.9829311 0.95099205
1.4610453 -3.8177183 0.94374466
1.5440276 -3.8350766 0.9544673
0.065432154 -3.7117379 0.99472785
0.15154009 -3.7175179 0.99697095
1.1685042 -3.7399082 0.90460318
1.2627281 -3.7626381 0.91630059
1.3581247 -3.783144 0.92799807
-0.90674669 -3.6045842 0.99593568
-0.84073967 -3.6040726 0.99166518
-0.73873293 -3.6179733 0.98946518
-0.64731932 -3.6194689 0.98523784
-0.55900437 -3.6339426 0.98519468
-0.45712885 -3.6413441 0.98338294
-0.35591578 -3.6526217 0.98338294
-0.25427809 -3.6635242 0.98403001
-0.15271266 -3.6754453 0.98571235
-0.050537121 -3.6893759 0.98868871
0.01355933 -3.699471 0.99127692
-0.95658737 -3.5916147 0.99593568
-2.6366286 -3.427443 0.9983328
-2.5607584 -3.4261951 0.98753518
-2.4439068 -3.4150922 0.96953899
-2.3537147 -3.4118319 0.95694178
-2.2466571 -3.4063673 0.94209504
-2.1439445 -3.4031448 0.92859793
-2.0551584 -3.3915327 0.91555077
-1.9747443 -3.3894949 0.90565294
-3.9095914 -3.2910156 0.99335164
-3.8491933 -3.28636 0.9838112
-3.7546709 -3.2741499 0.96835566
-3.6510024 -3.2757878 0.95347255
-3.5398474 -3.2652311 0.93610895
-3.4397883 -3.2629926 0.92160749
-3.338387 -3.2565479 0.90653354
-5.4189215 -3.0984237 0.98866582
-5.3185925 -3.0905259 0.97427386
-5.2254453 -3.0853977 0.96113336
-5.1394086 -3.0831869 0.94924432
-5.0339537 -3.0667119 0.9336009
-4.9687476 -3.0747545 0.9254663
-4.8663487 -3.0597606 0.91044861
0.95649606 -3.9086497 1.07824
1.0478733 -3.9278204 1.0892831
1.1113627 -3.9458668 1.098428
0.56060547 -3.810101 1.0319116
0.64435756 -3.8231912 1.0388997
0.74467915 -3.8449945 1.049425
0.84862596 -3.8746099 1.0628405
0.16948524 -3.7323549 1.0011121
0.24782558 -3.7369454 1.0035276
0.34122232 -3.755878 1.010559
0.44939291 -3.7809522 1.0202646
0.51818144 -3.7976038 1.026994
-1.0138434 -3.6020355 1.0026649
-1.9327257 -3.5954294 1.0937693
-1.8513292 -3.5923874 1.082899
-1.7534647 -3.5838928 1.0690951
-1.6475003 -3.5858026 1.0574052
-1.5430983 -3.5863202 1.0461465
-1.452566 -3.5794983 1.0351037
-1.3519661 -3.579597 1.0253117
-1.2425026 -3.5889115 1.0176766
-1.1465127 -3.5917196 1.0102571
-1.0649351 -3.5912306 1.0037003
-3.2163491 -3.4782088 1.093712
-3.1398945 -3.4675665 1.0799899
-3.048018 -3.4620848 1.0649183
-2.9550478 -3.4524736 1.0491717
-2.8434696 -3.4418545 1.0307256
-2.7464979 -3.4453218 1.0172286
-2.6748798 -3.4273875 1.0037316
-4.5701003 -3.3325746 1.0994414
-4.4559965 -3.321862 1.0803605
-4.3519258 -3.3164797 1.0635693
-4.2455435 -3.3049393 1.0458241
-4.1469026 -3.2985952 1.029987
-4.0489597 -3.2903371 1.0141498
-3.963623 -3.2906632 1.0013657
-6.1836882 -3.1493871 1.0991086
-6.0528069 -3.136137 1.0797107
-5.9433885 -3.1322677 1.0640672
-5.8279037 -3.1222758 1.0471723
-5.7174954 -3.1146913 1.031216
-5.6235776 -3.1133518 1.0180755
-5.5139098 -3.103126 1.0021192
2.8438668 -4.2367945 1.1780686
2.9242465 -4.2611752 1.1931404
1.6658473 -4.1024871 1.1864265
1.3451294 -4.0152264 1.1346626
1.4486938 -4.0420232 1.1505369
1.5589601 -4.0801616 1.1703798
1.6307375 -4.0978622 1.1817677
1.1610634 -3.9627156 1.1064514
1.2412133 -3.9798052 1.1170629
-2.5518198 -3.6409197 1.191344
-2.4581325 -3.6400576 1.1769365
-2.3418548 -3.6280994 1.1570936
-2.2533247 -3.6285691 1.1444979
-2.158771 -3.6144845 1.128106
-2.054214 -3.6076295 1.1124042
-1.9854872 -3.6041341 1.1025691
-3.800323 -3.5253029 1.1967396
-3.7514894 -3.5290489 1.1890913
-3.6616549 -3.5174408 1.17222
-3.5480294 -3.5042305 1.1512995
-3.4423203 -3.4954991 1.1326286
-3.3416638 -3.4900217 1.1155323
-3.2652724 -3.4832482 1.1022601
-5.1217227 -3.3669026 1.1914114
-5.0333605 -3.3581035 1.1761466
-4.9545269 -3.3557281 1.1631716
-4.8743567 -3.3513052 1.149815
-4.7896628 -3.3425579 1.1353135
-4.6665244 -3.3297191 1.1143246
-6.6785583 -3.1726413 1.1710684
-6.5376511 -3.160424 1.1501062
-6.40731 -3.1527874 1.1310211
-6.2903132 -3.1485813 1.1141262
3.0969133 -4.3161664 1.2264332
3.1560378 -4.3359513 1.2381306
3.2174916 -4.3561354 1.250278
2.9839976 -4.2838306 1.2052877
3.0385811 -4.2979012 1.2151856
-3.1062629 -3.7032125 1.2951305
-3.0667915 -3.708432 1.2894365
-3.0103092 -3.6923194 1.2764956
-2.9389634 -3.6828184 1.2625194
-2.8535428 -3.6787434 1.2475078
-2.7624106 -3.6657414 1.2299081
-2.6583476 -3.6569908 1.2114457
-4.3116565 -3.5745244 1.2930187
-4.2409825 -3.564918 1.2790717
-4.1398883 -3.5544415 1.2597259
-4.0555086 -3.5565856 1.245329
-3.9477787 -3.5370579 1.2237337
-3.862227 -3.5328836 1.2084371
-5.7123709 -3.422847 1.2944483
-5.6000504 -3.407562 1.2742225
-5.456315 -3.3994081 1.2496082
-5.3050423 -3.3835909 1.2230856
-5.2176156 -3.378011 1.2082026
2.4546053 -4.2755537 1.3210124
-3.5467319 -3.7530794 1.3836466
-3.435822 -3.737618 1.3603529
-3.3317864 -3.7276287 1.3396474
-3.2325568 -3.7198088 1.3204948
-4.8375459 -3.6281731 1.3960463
-4.7686768 -3.628814 1.383449
-4.6790719 -3.6111825 1.3645531
-3.1470623 -3.6990933 1.3013421
-4.5591731 -3.5953183 1.3404833
-4.4415693 -3.5787778 1.3168634
-4.3727193 -3.5739343 1.3038163
-6.2916703 -3.4789217 1.3974851
-6.1782355 -3.472738 1.377641
-6.0538692 -3.4572685 1.3551254
-5.9446859 -3.4501736 1.3360445
-5.8257542 -3.4357414 1.314674
-4.0657191 -3.820636 1.4949389
-3.9941945 -3.8062794 1.4783744
-3.9314055 -3.7991672 1.4649158
-3.838851 -3.7874515 1.4449868
-3.7454982 -3.7730551 1.42454
-3.6620517 -3.7669744 1.4077168
-5.2889838 -3.6855309 1.4882761
-5.1947112 -3.6739786 1.4689304
-5.0520959 -3.6522427 1.4392369
-4.9198079 -3.6351538 1.4122428
-6.6712179 -3.5113842 1.4654131
-6.5467625 -3.502991 1.4432793
-6.4169517 -3.4913745 1.4200006
3.5417507 -4.8004045 1.5984664
3.4683893 -4.7703257 1.5803491
3.3154211 -4.6258121 1.5249618
-4.4433699 -3.8651392 1.5780196
-4.3347774 -3.8526564 1.5539496
-4.2647266 -3.8440223 1.5384204
-4.1631241 -3.83073 1.5159031
-5.8098245 -3.7556679 1.5971525
-5.7150397 -3.7512243 1.5782566
-5.5985513 -3.7295358 1.5530621
-5.4900513 -3.7128534 1.530117
-5.3868814 -3.6981494 1.5085218
3.6506205 -4.8408575 1.6246071
3.7629681 -4.8827868 1.6517831
-4.8518028 -3.9329386 1.6735239
-4.7135797 -3.9035709 1.6398774
-6.2888203 -3.8206565 1.6988304
-6.1757588 -3.811249 1.6754354
-4.6336393 -3.8908422 1.6212425
-4.5651827 -3.8880236 1.6067486
-6.0327582 -3.7828751 1.6439424
-5.9355216 -3.7798882 1.6245965
-5.3633723 -4.018158 1.7956865
-5.2582917 -3.9970496 1.7698046
-5.1667042 -3.9832094 1.7480638
-5.0657291 -3.9620545 1.7232172
-4.9895182 -3.9588988 1.7066528
-6.6753721 -3.8680215 1.7811625
-6.5340161 -3.8472936 1.7505691
-6.4133477 -3.8367894 1.7253746
-5.6865563 -4.0771823 1.8748852
-5.5758705 -4.0555692 1.8474504
-5.4790306 -4.0439196 1.8246742
-6.1551647 -4.1579661 1.9903184
-6.0383587 -4.1407456 1.9618484
-5.9062419 -4.1110635 1.9282019
-5.8063955 -4.1020355 1.9049082
-6.4761147 -4.1193867 2.056576
-6.3596649 -4.1378493 2.0330238
-6.259634 -4.1651931 2.0146475
7.4816074 3.7628565 -2.2439611
-5.6406012 4.8981166 -2.0017066
-5.8096647 4.9742107 -2.0493293
-5.3411312 4.7704926 -1.9188844
-5.4917364 4.8365088 -1.960813
7.4911871 3.3165092 -1.8913884
-6.3131695 4.659646 -1.8115308
-6.3193297 4.7671461 -1.8275024
-4.6986485 4.4979773 -1.7428875
-4.5742612 4.4405146 -1.7082057
-4.8035979 4.5361886 -1.7703223
-6.0082383 4.6638274 -1.755968
-5.8438654 4.6019726 -1.7172763
-6.1783962 4.7271585 -1.7960092
-4.4605465 4.3910251 -1.6771474
-4.3573203 4.3497219 -1.6497126
-4.2508192 4.3030725 -1.6207249
-5.5284958 4.4784851 -1.6425925
-5.3841724 4.4241829 -1.6088499
-5.6699977 4.529541 -1.6754354
7.5668254 3.0941286 -1.5890573
-4.143837 4.2537675 -1.5912195
-5.2431417 4.3684211 -1.5755572
-4.5120754 4.0898652 -1.4059441
-4.6333723 4.1136417 -1.4304638
-5.9214053 4.2816596 -1.4203821
-6.2730637 4.3712311 -1.4862113
-6.0806646 4.3324938 -1.4512932
-4.0690265 3.8993301 -1.3011169
-3.2032461 3.8913803 -1.3505177
-3.1377215 3.8650987 -1.3339534
-3.0352345 3.8197701 -1.3072951
-4.147871 3.9210753 -1.3177633
-5.3156629 4.0729585 -1.3016989
-4.4045048 4.0487313 -1.3811995
-5.5728765 4.1493564 -1.3505461
-5.4670153 4.1301732 -1.3318468
-5.7647419 4.2299786 -1.3898528
4.4864011 2.9168439 -1.2354312
-2.7075946 3.6872921 -1.225767
-2.63168 3.6636038 -1.2086849
-2.9398699 3.7805111 -1.2832248
-2.852263 3.746726 -1.2617428
-2.7632811 3.7085767 -1.2392256
-2.4265671 3.5852761 -1.160027
-2.3387327 3.5602574 -1.141392
-2.2674549 3.5305681 -1.1243099
-3.1679783 3.6147923 -1.1096835
-2.5305734 3.6286645 -1.1853912
-4.4899278 3.7996595 -1.1433275
-4.3828459 3.7618639 -1.1227201
-4.2883601 3.7330739 -1.1051657
-5.79526 3.8957214 -1.1059917
-4.5887032 3.8285937 -1.1616452
-6.2657323 3.9625621 -1.1741971
-6.1138272 3.9870746 -1.1560507
-5.9590206 3.9456856 -1.1319598
-6.2445641 4.010478 -1.1754485
4.497931 2.6611288 -1.0158671
-1.8347045 3.3761108 -1.0295823
-1.7421036 3.342927 -1.0100845
-2.8366113 3.4979272 -1.0397238
-2.7514124 3.4663131 -1.0217277
-2.6694872 3.4365258 -1.0046314
-1.9536937 3.4237127 -1.0562406
-1.8965616 3.4060497 -1.0445937
-3.0464272 3.575603 -1.0844891
-2.9457312 3.5318146 -1.061769
-2.8863471 3.5101476 -1.0491717
-4.112958 3.682579 -1.0731097
-5.3623986 3.7687569 -1.0380991
-5.2362499 3.7349806 -1.0187012
-4.1915498 3.7005522 -1.086848
-5.6250052 3.8371184 -1.0784591
-5.4908934 3.8020749 -1.0578098
-1.245903 3.1857615 -0.91660762
-1.1608167 3.1618073 -0.902502
-1.6613773 3.2989767 -0.98972404
-1.5538347 3.2826815 -0.97315961
-1.4616446 3.2520497 -0.95538735
-1.3510342 3.2215488 -0.93606216
-2.5260129 3.3938484 -0.9767375
-2.4548426 3.3711972 -0.96279049
-2.3608167 3.3391299 -0.94411957
-1.6357353 3.3053007 -0.9881711
-3.2146561 3.4017813 -0.90977728
-2.6247046 3.4267693 -0.99653316
-2.5772347 3.4139032 -0.98753512
-4.7454925 3.5889878 -0.94236124
-4.6519885 3.5683064 -0.92859501
-4.5474572 3.5388246 -0.91263866
0.8993454 2.8540959 -0.80182141
0.95282423 2.849328 -0.80505663
1.0508562 2.8433385 -0.81227767
1.1540587 2.8454614 -0.82278574
1.2489792 2.8483894 -0.83339739
1.3827441 2.8527157 -0.84944409
1.441221 2.8468113 -0.85500872
1.5410523 2.8441176 -0.86678499
0.16454844 2.9995193 -0.80492723
0.49748108 2.9664681 -0.8059625
0.52750313 2.9553714 -0.80440962
-0.27647087 3.0261998 -0.81424469
-1.9265028 3.1961222 -0.86156255
-1.8595208 3.1844342 -0.85136479
-1.744882 3.1368866 -0.82871968
-1.6485013 3.1145489 -0.81357294
-1.1221493 3.1583371 -0.8981021
-1.0484048 3.1565485 -0.89126933
-0.94430107 3.1312835 -0.87636131
-0.875323 3.1392851 -0.87325543
-2.8549464 3.2853982 -0.8460471
-2.7364483 3.2163684 -0.82086027
-2.6749878 3.234611 -0.81589925
-2.5958192 3.2055697 -0.80177939
-1.9609804 3.202538 -0.86696136
-0.92380995 3.2259576 -0.89913738
-3.1472499 3.3761935 -0.8971839
-3.0561748 3.3479896 -0.88115597
-2.9368069 3.3088393 -0.85997617
-4.3434186 3.4784899 -0.88135177
-4.24757 3.4494452 -0.86664695
-4.1684961 3.4338 -0.85538363
-4.0874147 3.4139745 -0.84349465
-5.8616147 3.5990419 -0.84455454
-5.769599 3.5968499 -0.83480501
-5.6235905 3.5605838 -0.8172558
-5.4833851 3.5256789 -0.80043787
-4.4358163 3.5019398 -0.895118
-6.267642 3.6391375 -0.88988996
-6.0564847 3.6607177 -0.86892843
1.4683851 2.684067 -0.70634633
1.5552621 2.685981 -0.71658158
-0.91668582 2.8985336 -0.70184731
0.5754993 2.8774788 -0.78629225
0.64798582 2.8729892 -0.78919107
0.74982518 2.8584971 -0.79188269
0.83416361 2.8543222 -0.79681754
-1.231511 2.9997511 -0.74863708
-1.16208 2.9760246 -0.73761451
-1.055667 2.9425366 -0.7217555
-0.97335029 2.9361174 -0.71414465
-0.86294001 2.941648 -0.70778596
-0.79399663 2.9304774 -0.70094746
-0.22688474 2.9282341 -0.78698248
-0.14569096 2.9334321 -0.78701699
-0.043218337 2.9166369 -0.7816335
0.04834893 2.9282217 -0.78473932
0.12131647 2.9628627 -0.79457444
0.55087274 2.9098437 -0.79353917
-1.9658232 3.0236351 -0.70103222
-1.5636549 3.0821095 -0.79790139
-1.4552637 3.0689723 -0.78417939
-1.3441815 3.0321109 -0.76573342
-1.2716043 3.0073016 -0.753811
-3.1713605 3.1546965 -0.70849168
-2.5255523 3.1863656 -0.79033089
-2.4373794 3.1643262 -0.77640176
-2.3405843 3.1268995 -0.759229
-2.2628522 3.1122756 -0.7479713
-5.3456087 3.4900787 -0.7838636
-5.2152205 3.4571176 -0.76826435
7.559639 1.9381657 -0.68277812
7.562788 2.051214 -0.68556702
0.88061345 2.5986731 -0.63346219
0.94102889 2.5981467 -0.63796121
1.2155555 2.5961127 -0.66180599
0.76866269 2.6947582 -0.64695925
0.83876878 2.6895492 -0.650446
0.99431741 2.6865482 -0.66135609
1.0470564 2.6841295 -0.66518027
1.1325564 2.6804173 -0.67181635
1.2780985 2.680793 -0.68565083
1.3471437 2.6802387 -0.69257927
1.4124722 2.6699491 -0.6973483
-0.23342647 2.7814233 -0.64440984
-0.1556114 2.7759721 -0.64192039
-0.049109843 2.7584603 -0.63698637
0.0538105 2.7543311 -0.63603306
0.1412524 2.7830102 -0.64335996
0.47818673 2.782923 -0.65190816
0.54948461 2.7397375 -0.64515954
0.65322226 2.7129273 -0.64425981
0.72173762 2.7077341 -0.64695925
-1.4455615 2.879185 -0.62623513
-1.3516369 2.8642187 -0.61564523
-1.2556139 2.8378325 -0.60321087
-0.2856833 2.8170533 -0.65370774
0.15517847 2.8018918 -0.64785904
0.44458702 2.8200569 -0.65910661
-2.5399623 2.9885373 -0.62120128
-2.454555 2.9711926 -0.61040723
-2.3915062 2.9564278 -0.60227269
-1.8435116 2.991838 -0.68309617
-1.7590194 2.9694176 -0.67088443
-1.6555872 2.9332645 -0.65472931
-1.5658563 2.9139585 -0.64302629
-1.4817029 2.9004929 -0.63310426
-2.9398127 3.0924067 -0.67579687
-2.8325419 3.0630116 -0.66077918
-2.755177 3.0428033 -0.65014166
-2.6563704 3.0170679 -0.63668829
-1.9135213 3.0105538 -0.69339991
-4.0981669 3.1926341 -0.63786417
-3.0586796 3.1287203 -0.69300467
-4.4500313 3.2485077 -0.67649674
-4.3497319 3.2457345 -0.6663816
-4.2589126 3.2244971 -0.65590084
-4.1754618 3.2062609 -0.64639497
-6.2333827 3.3423657 -0.61880577
-6.1480589 3.3785269 -0.61375076
-5.9990883 3.3514032 -0.60120034
-4.6364584 3.3108177 -0.69953001
0.4829399 2.5830412 -0.51079571
0.54644048 2.5752597 -0.51174968
0.64415824 2.5727534 -0.51556593
0.74899262 2.5516381 -0.51693976
0.84240925 2.5380645 -0.51984
0.96406084 2.5445178 -0.52892256
1.0450132 2.5420022 -0.53426516
1.1474689 2.5366976 -0.54121059
1.2493076 2.524971 -0.54762185
1.3555353 2.5151553 -0.55540687
1.4586601 2.5151174 -0.56517625
1.5557566 2.5187628 -0.57547992
0.065184236 2.6293821 -0.51127267
0.13003141 2.6471584 -0.51518434
0.44508383 2.6339521 -0.51925486
-1.7377018 2.7796488 -0.51920599
-1.6515934 2.769074 -0.51068032
-1.0314447 2.7897089 -0.57815123
-0.9501608 2.7753639 -0.57023269
-0.85563385 2.7799182 -0.56540519
-0.75808138 2.7317016 -0.55105639
-1.9314717 2.8431416 -0.54439193
-1.8582948 2.8183696 -0.534693
-1.7937932 2.803798 -0.52718413
-1.2029272 2.8229535 -0.59646893
-1.1392624 2.8078723 -0.5890274
-1.0808618 2.8025751 -0.58387554
-0.79866087 2.8018646 -0.56632107
-3.1093347 2.9496171 -0.52623183
-3.0374813 2.9413533 -0.51916337
-2.9500139 2.9172447 -0.50941384
-2.8987384 2.9068444 -0.50405163
-2.3291907 2.9417536 -0.59429455
-2.2588923 2.9152973 -0.58412629
-5.1763196 3.1832478 -0.53165001
-5.7786074 3.2800384 -0.58132881
-5.657197 3.2635517 -0.57139307
-5.5620852 3.2606466 -0.56407195
-5.4399052 3.2402613 -0.55396187
-5.3109064 3.2151327 -0.5431546
7.5950184 1.6365519 -0.40717375
7.606802 1.6947466 -0.4084298
7.649591 1.7590173 -0.41136062
0.85306609 2.3970118 -0.40297517
1.0554092 2.3956075 -0.41462955
1.1438916 2.3917553 -0.41993266
1.2414937 2.3796234 -0.42512625
1.3440187 2.3710608 -0.43169656
1.4422261 2.3688457 -0.43926799
1.5478113 2.3713195 -0.44852892
0.65416795 2.4811859 -0.49877471
0.79956383 2.4049788 -0.40141085
0.85572612 2.4048135 -0.40430489
0.96083516 2.4047947 -0.41017115
1.0091871 2.4042842 -0.41298699
-0.88453603 2.559675 -0.42894331
-0.27323887 2.547436 -0.40579101
0.049457114 2.5235929 -0.46783364
0.12702741 2.5582118 -0.40568671
0.33678547 2.5132179 -0.4016194
-1.3013428 2.6883638 -0.47305784
-1.2525793 2.6580019 -0.46539253
-0.83876002 2.6320691 -0.43754721
-0.74578214 2.6206517 -0.43157142
-0.63130414 2.629571 -0.42831758
-2.450156 2.7860107 -0.4555476
-2.3550971 2.7935677 -0.44864169
-2.2489567 2.7638252 -0.43751094
-1.5346967 2.7448773 -0.49808735
-1.4580975 2.7169845 -0.48838839
-1.355003 2.7022409 -0.47879377
-2.8463614 2.8944566 -0.4984456
-2.7677493 2.8739786 -0.48991477
-2.6499572 2.8487585 -0.4777278
-2.542222 2.8303027 -0.46712518
-2.4306464 2.8030479 -0.4555476
-4.1649942 2.9785459 -0.44798052
-4.0747619 2.9572291 -0.44048512
-4.5541363 3.0462594 -0.47935659
-4.4353151 3.0335138 -0.47011808
-4.3469267 3.0178187 -0.4629713
-4.2589769 3.0010395 -0.45582452
0.86298585 2.2946615 -0.30101728
0.94828159 2.2885795 -0.30418587
1.0454971 2.2836838 -0.30841067
1.1545016 2.2673743 -0.31243238
1.2608274 2.2578731 -0.31754273
1.3536253 2.255681 -0.32301468
1.4502294 2.2534111 -0.3290472
1.5575411 2.2383466 -0.33484823
1.6088974 2.2514324 -0.33977172
0.76053441 2.3989608 -0.39859501
0.85162669 2.3043785 -0.30166724
-0.86050099 2.4938629 -0.32392871
-0.73884827 2.4859095 -0.31844461
-0.67848033 2.4548378 -0.31271672
-0.23901376 2.4790382 -0.35931507
-0.14495912 2.4862249 -0.39447558
-0.049564652 2.4769015 -0.39240021
0.027641756 2.4734356 -0.39179009
0.37888426 2.4949241 -0.39969006
0.43943304 2.4574871 -0.38283843
0.54482287 2.4351795 -0.39525774
0.64773709 2.4176912 -0.39645711
0.74001849 2.4067783 -0.3988297
-1.5911194 2.5286117 -0.36682671
-1.4328852 2.5863218 -0.36304879
-1.3495919 2.5821059 -0.3577475
-1.2475131 2.5575042 -0.34939939
-1.1523222 2.5397859 -0.34245285
-1.0511566 2.5227065 -0.33557945
-0.94400358 2.5071158 -0.32894975
-0.81515366 2.502816 -0.32319748
-0.77004051 2.5108502 -0.32246628
0.054811183 2.5100646 -0.39765644
-2.7922378 2.6525145 -0.3369441
-2.4623318 2.6325328 -0.31537306
-2.3567185 2.627398 -0.30879277
-2.263773 2.6141088 -0.30254662
-1.6076589 2.6153169 -0.37694186
-1.5198658 2.6134889 -0.37121403
-1.4426786 2.604805 -0.36560804
-3.2035184 2.798548 -0.37215501
-3.0406947 2.750772 -0.35873306
-2.9694991 2.7430551 -0.35367802
-5.525598 2.9914198 -0.32929784
-5.396616 2.9692683 -0.32280818
-5.2851133 2.9561718 -0.31736523
-5.1658926 2.935828 -0.31139895
-6.225215 3.0686011 -0.3637349
-6.0858579 3.0795228 -0.35745457
-5.9546485 3.0642161 -0.35096493
-5.8021688 3.0371699 -0.34321919
-5.6785712 3.0231647 -0.33714822
0.68082404 2.1911988 -0.20074873
0.75237012 2.1898913 -0.20259354
0.84161568 2.1865005 -0.20499028
0.94708467 2.1733367 -0.20743068
1.0472898 2.1634953 -0.21030682
1.1532034 2.1485951 -0.21335725
1.2571859 2.1418958 -0.21729669
1.3528881 2.1315403 -0.22088751
1.4564056 2.1272311 -0.22555907
1.5538473 2.1242139 -0.23026547
-0.21802785 2.284816 -0.20080681
-0.1226033 2.28597 -0.2002839
0.1084186 2.2906618 -0.20063251
0.35620517 2.2749763 -0.20146921
0.64237773 2.2024548 -0.20071967
0.76134777 2.2664278 -0.26625672
0.80182606 2.2999456 -0.29906738
-1.0449039 2.3949194 -0.22860952
-0.94916457 2.3746393 -0.22374623
-0.85273552 2.369487 -0.22032972
-0.75026202 2.3641589 -0.21701781
-0.66025293 2.3722548 -0.21544899
-0.59709489 2.3562372 -0.21266001
-0.23287846 2.3499119 -0.24903305
-0.15477668 2.3898389 -0.29407072
-0.054693103 2.3799896 -0.29232392
0.033618197 2.3880932 -0.29325825
0.14354426 2.3386345 -0.2049903
0.3123346 2.3100765 -0.20394444
0.45876265 2.3504949 -0.29407075
0.55474162 2.3215466 -0.29309574
0.65524602 2.3120592 -0.29508629
0.73271173 2.3068836 -0.29719868
-1.6824806 2.4831581 -0.26242596
-1.5477343 2.4761491 -0.25548252
-1.4538126 2.4640937 -0.25031129
-1.3470117 2.4355602 -0.24351315
-1.2458851 2.4285583 -0.23880674
-1.1530153 2.4106569 -0.23379529
-1.0989265 2.4046979 -0.23131134
-0.65464985 2.407021 -0.21823798
-0.25649816 2.4115446 -0.25488874
0.0788863 2.4036307 -0.29528943
0.11266531 2.4152012 -0.29687375
-2.9242902 2.575314 -0.2042149
-2.8555632 2.5684547 -0.20128408
-1.9191145 2.5366673 -0.27828828
-1.857699 2.5454462 -0.27570269
-1.7737701 2.5218813 -0.26974702
-1.6987323 2.5071316 -0.26495346
-3.1391346 2.613029 -0.21405406
-3.0585504 2.6002703 -0.21039054
-4.3392854 2.7975507 -0.27057689
-4.2561498 2.7862074 -0.26659936
-4.1783767 2.7771583 -0.26293585
-4.0910072 2.760458 -0.25864428
-4.6158462 2.8419089 -0.28407958
-4.5218773 2.8266799 -0.27947402
-4.4396458 2.8185718 -0.27560115
-11.184174 3.4022765 -0.20405354
1.2296783 1.9964706 -0.12288482
1.3519901 1.9873493 -0.12597264
1.4440957 1.9862293 -0.12870458
0.63640517 2.0955737 -0.1147902
0.7506882 2.0532925 -0.11458583
0.85448337 2.0447762 -0.11615094
0.95396596 2.0580301 -0.11888637
1.0496078 2.0551558 -0.1209484
1.1611592 2.0404363 -0.12304931
1.26247 2.0100303 -0.12440257
1.3155897 2.008136 -0.12581564
1.5674655 2.0201142 -0.13400622
1.625204 2.0069156 -0.13534078
-0.11623344 2.1912065 -0.11499954
-0.047413602 2.1776726 -0.11416217
0.049604703 2.1820474 -0.11439477
0.13512713 2.1842542 -0.11469425
0.45848578 2.1370649 -0.11455294
0.55786783 2.136816 -0.13345568
0.64664406 2.1319373 -0.13677435
0.70371741 2.1044102 -0.11629049
-1.1055164 2.294019 -0.13345669
-1.0437429 2.2866855 -0.13174006
-0.94817793 2.2834518 -0.12958382
-0.85269862 2.2730758 -0.12723918
-0.74866265 2.2541676 -0.12448981
-0.64212805 2.2414715 -0.12220446
-0.5458321 2.2576015 -0.12173343
-0.48960161 2.2644973 -0.12141941
-0.15554912 2.2534232 -0.16830719
-0.050510552 2.2666154 -0.19836648
0.044327535 2.2747507 -0.1990637
0.17548341 2.2100015 -0.11618582
0.44538403 2.2325189 -0.19918823
0.53782731 2.2098975 -0.198994
-1.7470967 2.3967462 -0.1554378
-1.6443329 2.3753285 -0.15140793
-1.5439962 2.3621795 -0.14790142
-1.4204845 2.3538013 -0.14408089
-1.3417839 2.3322992 -0.14101924
-1.2513282 2.3221049 -0.13824543
-1.1628281 2.3091104 -0.13549778
-2.4347537 2.4992847 -0.18286183
-2.3536196 2.4844503 -0.17935532
-2.2638247 2.4738655 -0.17574413
-1.9333369 2.4331515 -0.1628695
-1.8483582 2.4106927 -0.15920597
-1.7756637 2.400548 -0.15648451
-2.8011186 2.554189 -0.19866729
-2.7245388 2.5370529 -0.19510844
-2.6414826 2.529017 -0.19165426
-2.5513289 2.5114908 -0.18762439
-2.4889491 2.5020154 -0.18495527
-5.1997681 2.6345704 -0.10174753
-6.194026 2.7422853 -0.11824006
-5.8951783 2.7828627 -0.11378969
-5.2403755 2.7001281 -0.10289939
-6.1986976 2.8222966 -0.11888579
-6.048717 2.8038726 -0.11637264
4.5220056 1.5835837 -0.083631933
1.6242487 1.8933761 -0.043543756
0.68405831 1.9956974 -0.036824577
0.75896609 1.9943912 -0.037250418
0.84777731 1.9868742 -0.03770883
0.95286053 1.9745407 -0.03827313
1.0560738 1.9627572 -0.03890723
1.1469885 1.9495687 -0.039484326
1.2453656 1.9425625 -0.040280152
1.3459492 1.9326267 -0.041110888
1.448946 1.9196879 -0.041984666
1.54419 1.90474 -0.042802025
1.6012957 1.906322 -0.043456491
-0.11025473 2.0967834 -0.036650054
-0.051323026 2.064847 -0.036056671
0.037224952 2.061271 -0.035986863
0.38457501 2.0654819 -0.036673326
0.45393345 2.0407443 -0.036495473
0.55412972 2.0217731 -0.036595203
0.64213288 2.0094714 -0.036824577
0.7177887 2.0028901 -0.037138723
-1.1741408 2.1998942 -0.043526303
-1.053512 2.1887658 -0.042402364
-0.95877427 2.1830599 -0.0416205
-0.85365725 2.1638482 -0.040605932
-0.74539089 2.1478288 -0.039686773
-0.64938015 2.1579053 -0.039337724
-0.58917928 2.1752648 -0.039337724
-0.15697256 2.137815 -0.037417956
0.087834239 2.1168435 -0.03698165
0.12663387 2.1492431 -0.037580848
0.36167544 2.1048272 -0.037278339
-1.9142056 2.2950182 -0.052165244
-1.8325996 2.2761123 -0.051007565
-1.7526065 2.2721138 -0.050088406
-1.6522275 2.2524953 -0.048762027
-1.5507283 2.2425549 -0.047592711
-1.4578855 2.2385759 -0.04663283
-1.361994 2.2241309 -0.045524601
-1.2565877 2.2045047 -0.044294212
-1.1515721 2.2031856 -0.043395407
-2.8232098 2.3689542 -0.064329572
-2.7573133 2.3968124 -0.063771099
-2.6419137 2.3783262 -0.062049121
-2.5407765 2.3683977 -0.060629658
-2.4535263 2.3515437 -0.059320729
-2.3633826 2.3451192 -0.058116514
-2.2535369 2.3317883 -0.056603968
-3.143527 2.4400039 -0.069460578
-3.0419497 2.4300153 -0.067959666
-2.9687123 2.4220855 -0.066877618
-2.8324909 2.4106388 -0.064922951
-4.9220705 2.5797629 -0.097000472
-4.4153118 2.5945933 -0.089391224
-4.3472996 2.5956259 -0.088378988
-4.2465553 2.5768731 -0.086703554
-4.1620731 2.5655339 -0.085342266
-4.0399117 2.5478644 -0.083370149
-3.9415627 2.5440602 -0.081886694
-3.8685131 2.5353429 -0.080734834
-3.7841263 2.5179772 -0.07933864
-4.553298 2.6117523 -0.091625139
1.6475778 1.7910999 0.042479157
0.89450234 1.8940698 0.036562793
0.9588595 1.8918393 0.03702528
1.0515071 1.8763018 0.037545942
1.1498079 1.8648705 0.038244039
1.2522539 1.8530525 0.039041031
1.3552318 1.8357754 0.039832208
1.455894 1.822127 0.040712975
1.5530092 1.8107674 0.04164144
1.6240556 1.803027 0.04235699
0.019517757 1.9975882 0.034869909
0.37732369 1.9901904 0.035358578
0.44471851 1.9684565 0.03522893
0.55009818 1.9552739 0.035458926
0.65436447 1.9319681 0.035607893
0.74849296 1.9197879 0.03596941
0.83752203 1.9085225 0.036382452
-1.33373 2.0783691 0.043107446
-1.044526 2.0755179 0.040559392
-0.94890082 2.061655 0.039616965
-0.84917545 2.0669498 0.039008621
-0.74652928 2.0795717 0.038569819
-0.64615101 2.0672204 0.037807733
-0.54480833 2.066576 0.037308257
-0.22274752 2.0730038 0.036394086
-0.14318752 2.0396152 0.035692666
-0.043260969 2.013319 0.035154134
0.05920095 2.0164022 0.03521397
0.14807174 2.032491 0.035573822
0.35375789 2.0401323 0.036143936
-1.9180421 2.1878145 0.050786503
-1.8412863 2.1755979 0.049750995
-1.7082952 2.105809 0.047330927
-1.645484 2.123219 0.046891127
-1.549312 2.136353 0.046067376
-1.4566326 2.1373878 0.045149378
-1.2584912 2.120121 0.043037634
-1.1547863 2.1092982 0.04197653
-0.23627815 2.106467 0.036999103
-3.147438 2.2883401 0.067924768
-3.0575647 2.2889025 0.06666819
-2.9536235 2.2753339 0.065080024
-2.7575722 2.2489274 0.062113114
-2.6402655 2.2461698 0.060507491
-2.5642569 2.2439632 0.059477799
-2.4563322 2.2257969 0.05786055
-2.351325 2.2215159 0.056464355
-2.2409136 2.2073252 0.054905269
-4.351191 2.3959012 0.086703554
-4.239171 2.3915756 0.084958315
-4.1495123 2.3793342 0.083492309
-4.0295506 2.3668714 0.081572548
-3.9304342 2.3653793 0.080071643
-3.8558173 2.3572974 0.078884877
-3.7819173 2.3476305 0.077698112
-5.0834489 2.4640059 0.098606095
-4.5669456 2.4129727 0.090159133
-4.4742432 2.4040978 0.088658221
1.2800614 1.6930896 0.18569984
1.3506023 1.6867449 0.18905823
1.4431151 1.6672826 0.19293375
1.547235 1.6438612 0.18425173
0.67081857 1.7884789 0.16712114
0.74765629 1.7822444 0.16910703
0.84986663 1.7625846 0.17121744
0.96125954 1.7536215 0.17497969
1.055445 1.7410249 0.16764559
1.1536816 1.7476996 0.14877512
1.2491758 1.7529701 0.13743471
1.3495288 1.761266 0.11629049
1.4458202 1.7444597 0.11875028
1.545974 1.7264996 0.12146129
1.624076 1.7151319 0.12379199
-0.12351783 1.8847306 0.16524729
-0.044740111 1.8708497 0.1637366
0.044352613 1.8856695 0.16503812
0.10676458 1.8977386 0.16629316
0.37218717 1.8826895 0.14245644
0.45111576 1.864776 0.13861065
0.54960239 1.8491696 0.13436124
0.63859183 1.8463393 0.12676853
0.74658203 1.8544182 0.10477658
0.84761941 1.8412944 0.106242
0.94980365 1.8241482 0.10779462
1.0428537 1.8082145 0.10940309
1.1024199 1.800396 0.11063821
-1.1428999 1.9454367 0.19740775
-1.0517763 1.9418634 0.1932243
-0.94910651 1.9413376 0.18906985
-0.84795177 1.9426676 0.17459859
-0.74792308 1.9595119 0.14617644
-0.64934593 1.9489892 0.14592099
-0.5478946 1.9466606 0.14094216
-0.45185724 1.9396935 0.17426167
-0.39425838 1.9326615 0.17256837
-0.14686304 1.9444994 0.13993576
-0.052251168 1.937621 0.10903755
0.049420059 1.9363213 0.10152013
0.12748151 1.9405531 0.11548145
0.33107385 1.9206976 0.12497851
0.45205748 1.9033568 0.10252614
-2.8218172 2.0994895 0.18432724
-2.7569475 2.0959921 0.18150109
-2.6312973 2.0884533 0.17605816
-2.5620191 2.0917034 0.17333668
-2.2457514 2.0947709 0.16095051
-1.8410025 2.0437067 0.14415939
-1.7575195 2.0643916 0.14209212
-1.6635064 2.0529649 0.13848095
-1.5582651 2.0415549 0.13460808
-1.4469351 2.0478883 0.13141559
-1.3464079 2.0379272 0.12801376
-1.2503192 2.0431893 0.12554349
-1.1427431 2.0226047 0.12175437
-1.0486546 2.0163865 0.11911664
-0.95108908 2.0134554 0.11670917
-0.84555447 2.0054665 0.11407145
-0.47873986 2.018084 0.10870178
-0.21126178 2.0201962 0.10645133
-0.17323644 2.0157175 0.10603265
-3.1433401 2.140224 0.19929533
-3.0420985 2.1181765 0.19427107
-2.9489367 2.1150403 0.19018887
-2.8718402 2.1057205 0.18663003
-2.7082057 2.1037295 0.17972167
-2.5265224 2.1065137 0.17239463
-2.4575083 2.107626 0.16967316
-2.3578541 2.1092515 0.1658003
-6.1960158 2.4882703 0.11654717
-5.4283423 2.4921687 0.10426068
-5.3184276 2.4868073 0.10248053
-5.2052455 2.4783156 0.10063057
-6.1821942 2.5329821 0.11661698
-6.0924029 2.5460088 0.11525569
-5.9443078 2.5317843 0.11277745
-5.8201008 2.527029 0.11075297
-5.7017412 2.523093 0.10883321
-5.5600266 2.5069444 0.10645968
0.96984458 1.5776013 0.29331464
1.0213541 1.5860468 0.29878983
1.3738298 1.5963888 0.25860676
1.4503269 1.5818151 0.26352215
1.5576428 1.5629653 0.27095616
1.6409162 1.5467858 0.27688715
0.38054633 1.6941311 0.27501178
0.44998974 1.6854234 0.27634147
0.54986876 1.6683463 0.27825782
0.64713246 1.6487409 0.28056523
0.74799746 1.6321551 0.28439784
0.85392922 1.6429989 0.26735166
0.9294737 1.6450865 0.25672594
1.0449077 1.6620871 0.24108803
1.1559398 1.6420977 0.24659391
1.2559661 1.623288 0.25202581
1.3280388 1.6098801 0.25625062
1.6277151 1.6357366 0.20189628
-0.63981283 1.7758362 0.29897752
-0.54802006 1.7669178 0.29304087
-0.46511021 1.780831 0.29153126
-0.12498587 1.7812934 0.28283352
-0.051890977 1.747462 0.27692813
0.039668664 1.7548105 0.27222541
0.10806619 1.7705827 0.2809563
0.26595131 1.7433891 0.27933982
0.34899509 1.7421176 0.25198346
0.44857377 1.7488931 0.22797915
0.55156142 1.7375456 0.22385658
0.6501224 1.7292167 0.22685978
0.74838436 1.7134712 0.22960186
0.83101249 1.7051517 0.23293293
-1.5323085 1.8689346 0.29675186
-1.4474168 1.868749 0.29024404
-1.3434417 1.8645184 0.28218848
-1.251302 1.8706672 0.27635092
-1.1470805 1.8648547 0.26884377
-1.0505178 1.8646628 0.26279905
-0.95553803 1.8585782 0.25661623
