# .PCD v0.7 - Point Cloud Data file format
VERSION 0.7
FIELDS x y z intensity
SIZE 4 4 4 4
TYPE F F F F
COUNT 1 1 1 1
WIDTH 1254
HEIGHT 1
VIEWPOINT 0 0 0 1 0 0 0
POINTS 1254
DATA ascii
0.36231026 -3.8981886 -2.0816369 7.0999999
0.34245843 -3.9301176 -2.097599 7.0999999
0.32027355 -3.9461615 -2.1051104 7.0999999
0.30035746 -3.9760628 -2.1201336 7.0999999
0.27765301 -4.0007248 -2.13234 7.0999999
0.25665355 -4.0233607 -2.1436071 7.0999999
0.23490827 -4.0494533 -2.1567523 7.0999999
0.21215959 -4.0754652 -2.1698976 7.0999999
0.19062401 -4.1030464 -2.1839817 7.0999999
-0.18175156 4.6884618 -2.494772 21.1
-0.15562209 4.6911688 -2.4957108 25.1
-0.12792578 4.6973057 -2.4985278 25.1
-0.10071766 4.6909022 -2.494772 23.1
-0.073559783 4.6825762 -2.4900773 16.1
-0.046255231 4.6493721 -2.4722373 7.0999999
-0.019372594 4.6248388 -2.4590921 7.0999999
0.0080102924 4.5895548 -2.4403131 7.0999999
0.034218654 4.559413 -2.4243512 7.0999999
0.059335832 4.5326648 -2.4102671 7.0999999
0.085660927 4.5022178 -2.394305 7.0999999
0.11080258 4.4698734 -2.377404 7.0999999
0.1357363 4.4426851 -2.3633199 7.0999999
2.8440323 4.7313938 -0.64556557 28.1
2.8836341 4.7352948 -0.64835322 31.1
2.919203 4.7321329 -0.65021163 32.099998
2.9411464 4.7068181 -0.64905012 17.1
2.9501467 4.6612654 -0.64510101 15.1
2.9565766 4.6124215 -0.64068729 14.1
2.9625425 4.5636587 -0.63627356 14.1
2.9710162 4.5177832 -0.6323244 13.1
2.9804721 4.4757953 -0.62883991 14.1
2.9862115 4.4289079 -0.62465847 13.1
2.9889147 4.3766608 -0.61978012 13.1
2.9974997 4.3370214 -0.61652792 13.1
3.0038185 4.2914915 -0.61257881 14.1
3.0101104 4.2481861 -0.60886198 12.1
3.0129547 4.2022495 -0.60468054 13.1
3.0191655 4.1585765 -0.60096371 11.1
3.0254226 4.1171074 -0.59747922 11.1
3.0289316 4.0725169 -0.59353006 11.1
3.0320282 4.0280237 -0.58958095 10.1
3.0395284 3.9899514 -0.58656102 9.1000004
3.0437417 3.9466763 -0.5828442 8.1000004
3.0480897 3.9055903 -0.57935971 9.1000004
3.0508349 3.8630271 -0.57564288 7.0999999
3.0538583 3.8200295 -0.57192606 9.1000004
3.0601571 3.7843783 -0.56913841 9.1000004
3.0611708 3.74002 -0.5651893 7.0999999
3.0649228 3.7009079 -0.56193709 7.0999999
3.069602 3.6633999 -0.55891716 9.1000004
3.0688131 3.6199007 -0.55496806 7.0999999
3.0779717 3.5885954 -0.55287731 7.0999999
3.0816643 3.5513036 -0.54985744 7.0999999
3.0824931 3.5136726 -0.54660517 7.0999999
3.0886767 3.4764152 -0.54381758 7.0999999
3.0921125 3.4413793 -0.54102999 7.0999999
3.0991154 3.4082727 -0.53870696 7.0999999
3.0985215 3.3684366 -0.53522241 7.0999999
3.1043384 3.3359923 -0.53289944 7.0999999
3.1104612 3.3030505 -0.53057641 7.0999999
3.1116219 3.2663829 -0.52755648 7.0999999
3.1152205 3.2326729 -0.52500117 7.0999999
3.1199212 3.2004528 -0.52267814 7.0999999
3.1215651 3.1654575 -0.51989055 7.0999999
3.1276658 3.1342232 -0.51779979 7.0999999
3.1239567 3.0957325 -0.51431531 6.0999999
3.129312 3.0676601 -0.51245689 7.0999999
3.1342523 3.034121 -0.51013386 6.0999999
3.1367993 3.0028322 -0.50781083 7.0999999
3.1401324 2.9705141 -0.50548786 7.0999999
3.1412292 2.9374542 -0.50293255 6.0999999
3.1435084 2.9058294 -0.50060952 6.0999999
3.1489632 2.8764064 -0.4987511 5.0999999
3.1477852 2.842247 -0.49596348 5.0999999
3.1507649 2.8121653 -0.49387276 5.0999999
3.1520135 2.7808297 -0.49154976 5.0999999
3.1574974 2.7534902 -0.48992366 5.0999999
3.1597621 2.7235863 -0.48783293 6.0999999
3.1632996 2.6950362 -0.48597452 7.0999999
3.1670787 2.6659834 -0.48411611 6.0999999
3.1686378 2.6362638 -0.48202541 7.0999999
3.1668911 2.6040916 -0.4794701 7.0999999
3.1725874 2.5782919 -0.47807628 7.0999999
3.1738904 2.5482273 -0.47598556 7.0999999
3.1807337 2.5237312 -0.47482407 7.0999999
3.1748946 2.4894354 -0.47180414 7.0999999
3.1781883 2.4625912 -0.47017804 7.0999999
3.1860101 2.439415 -0.46924883 7.0999999
3.1873338 2.4114363 -0.46739042 7.0999999
3.1856749 2.3805888 -0.46506742 7.0999999
3.1877358 2.3544981 -0.46344128 7.0999999
3.1920226 2.3285162 -0.46204749 7.0999999
3.1957114 2.3031244 -0.46065366 7.0999999
3.1955805 2.276021 -0.45879528 7.0999999
3.1996741 2.249603 -0.45740145 7.0999999
3.197506 2.2214968 -0.45531073 7.0999999
3.2004204 2.1962998 -0.45391694 7.0999999
3.2018855 2.1694698 -0.45229083 7.0999999
3.2011201 2.1421542 -0.45043242 7.0999999
3.2034614 2.1171103 -0.44903859 7.0999999
3.2039571 2.0910246 -0.44741249 7.0999999
3.2075987 2.0671563 -0.44625098 7.0999999
3.2063999 2.0395565 -0.44439259 7.0999999
3.2089787 2.0168931 -0.44323108 7.0999999
3.2111096 1.9909723 -0.44183725 7.0999999
3.2127008 1.9656618 -0.44044346 7.0999999
3.2151279 1.9425519 -0.43928194 7.0999999
3.2177322 1.9189147 -0.43812045 7.0999999
3.2239263 1.8967646 -0.43742353 7.0999999
3.2193363 1.869188 -0.43533283 7.0999999
3.2231541 1.8466649 -0.43440363 7.0999999
3.2250903 1.8231825 -0.43324211 7.0999999
3.2251282 1.7987715 -0.43184829 7.0999999
3.229593 1.778421 -0.43115139 9.1000004
3.2319729 1.7533576 -0.4299899 9.1000004
3.2329586 1.7305923 -0.42882839 9.1000004
3.2361436 1.7076689 -0.42789918 9.1000004
3.2300658 1.6807493 -0.42580846 9.1000004
3.2343903 1.6593974 -0.42511156 7.0999999
3.2370892 1.63659 -0.42418236 7.0999999
3.2411277 1.6152605 -0.42348546 4.0999999
3.2361133 1.5895599 -0.42162704 4.0999999
3.2326989 1.5648364 -0.42000094 4.0999999
3.2380722 1.5444812 -0.41953632 5.0999999
3.2363923 1.5201718 -0.41814253 4.0999999
3.2391622 1.5001346 -0.41744563 4.0999999
3.2425847 1.4784145 -0.4167487 7.0999999
3.242239 1.4550799 -0.41558722 9.1000004
3.2469318 1.4347762 -0.4151226 9.1000004
3.2405691 1.4097121 -0.41326419 9.1000004
3.2470512 1.3896759 -0.41303188 9.1000004
3.245609 1.3676624 -0.41187039 10.1
3.2481623 1.3460971 -0.41117346 10.1
3.2485034 1.3243672 -0.41024429 10.1
3.2468586 1.3019387 -0.40908277 10.1
3.2508311 1.2811918 -0.40861815 10.1
3.2486751 1.2594258 -0.40745667 10.1
3.2505224 1.2380046 -0.40675974 10.1
3.2520175 1.2171736 -0.40606284 8.1000004
3.2479959 1.1937428 -0.40466905 5.0999999
3.2583489 1.1769336 -0.40513363 4.0999999
3.248224 1.1521708 -0.40304294 4.0999999
3.2520757 1.1108985 -0.40188143 10.1
3.250886 1.0896243 -0.40095222 10.1
3.2533338 1.0696417 -0.4004876 9.1000004
3.2537684 1.0490575 -0.3997907 9.1000004
3.2542539 1.0279359 -0.39909381 9.1000004
3.2561491 1.0085694 -0.39862919 9.1000004
3.2584472 0.98750764 -0.3981646 9.1000004
3.260103 0.96816272 -0.39769998 10.1
3.2599027 0.94770628 -0.39700308 10.1
3.2578261 0.9261722 -0.39607388 10.1
3.2610343 0.90743023 -0.3958416 10.1
3.262218 0.88815945 -0.39537698 10.1
3.2560635 0.86515456 -0.39398319 9.1000004
3.2646899 0.84795463 -0.39444777 10.1
3.2640316 0.8265332 -0.39375088 10.1
3.2590957 0.80533743 -0.39258936 9.1000004
3.2598178 0.7856223 -0.39212477 9.1000004
3.2642884 0.7668342 -0.39212477 10.1
3.2628417 0.74669123 -0.39142784 9.1000004
3.2554548 0.72529441 -0.39003405 9.1000004
3.2654023 0.70779485 -0.39073095 4.0999999
3.2559381 0.68554026 -0.38910484 4.0999999
3.2598324 0.66677612 -0.38910484 4.0999999
3.2594941 0.62767965 -0.38817564 10.1
3.2592559 0.60759836 -0.38771105 10.1
3.2607462 0.5884636 -0.38747874 10.1
3.2601678 0.56899035 -0.38701412 10.1
3.2614319 0.54987353 -0.38678184 10.1
3.2625842 0.53076106 -0.38654953 10.1
3.261662 0.51134592 -0.38608491 10.1
3.2626748 0.4916859 -0.38585263 10.1
3.2615206 0.4723168 -0.38538802 10.1
3.268122 0.45407081 -0.38585263 10.1
3.2609131 0.43336102 -0.38469112 10.1
3.261312 0.4148913 -0.38445881 10.1
3.2676609 0.39600909 -0.38492343 10.1
3.2639673 0.37649935 -0.3842265 10.1
3.2719429 0.35891396 -0.38492343 10.1
3.2641358 0.33846724 -0.38376191 10.1
3.266031 0.31966165 -0.38376191 10.1
3.2697961 0.30102757 -0.38399422 10.1
3.2655876 0.28110793 -0.38329732 10.1
3.2651265 0.26270583 -0.38306502 10.1
3.264647 0.24317811 -0.38283271 10.1
3.2600479 0.22396272 -0.38213581 7.0999999
3.2613196 0.20461339 -0.38213581 4.0999999
3.2545111 0.18537438 -0.3812066 3.0999999
3.259213 0.12919427 -0.38143891 12.1
3.2619076 0.10991846 -0.38167119 13.1
3.2644563 0.09175472 -0.3819035 12.1
3.2550135 0.072161406 -0.38074198 12.1
3.2593474 0.053477962 -0.3812066 13.1
3.2615876 0.034725834 -0.38143891 12.1
3.2577634 0.015351962 -0.38097429 13.1
3.2538254 -0.0028394992 -0.3805097 12.1
3.2577243 -0.022174967 -0.38097429 9.1000004
3.2515836 -0.040862754 -0.3802774 7.0999999
3.2572527 -0.059698954 -0.38097429 8.1000004
3.2528694 -0.078930341 -0.3805097 7.0999999
3.2583175 -0.097842984 -0.3812066 6.0999999
3.2497792 -0.11575639 -0.3802774 4.0999999
3.25102 -0.13512132 -0.3805097 4.0999999
3.2482035 -0.15374957 -0.3802774 4.0999999
3.2452805 -0.17234989 -0.38004509 5.0999999
3.2481666 -0.19183885 -0.3805097 4.0999999
3.2536674 -0.2298013 -0.38143891 12.1
3.2483284 -0.24823444 -0.38097429 12.1
3.2428389 -0.2671797 -0.3805097 12.1
3.2452037 -0.2862016 -0.38097429 13.1
3.2475102 -0.3046928 -0.38143891 13.1
3.245645 -0.32395843 -0.38143891 12.1
3.2457008 -0.34285522 -0.38167119 12.1
3.2357123 -0.36122784 -0.38074198 11.1
3.2395632 -0.37998801 -0.38143891 12.1
3.2411942 -0.3996914 -0.3819035 13.1
3.2447488 -0.41911602 -0.3826004 11.1
3.238344 -0.43726575 -0.38213581 13.1
3.235692 -0.45647466 -0.38213581 13.1
3.2370229 -0.4751159 -0.3826004 13.1
3.2361965 -0.49405164 -0.38283271 13.1
3.2351696 -0.51355821 -0.38306502 14.1
3.2283309 -0.53097397 -0.3826004 13.1
3.2309015 -0.55168772 -0.38329732 13.1
3.2335389 -0.57132399 -0.38399422 12.1
3.23616 -0.59044415 -0.38469112 12.1
3.2267432 -0.60853297 -0.38399422 12.1
3.2290347 -0.62824565 -0.38469112 13.1
3.2312057 -0.64800483 -0.38538802 14.1
3.2254744 -0.66620255 -0.38515571 14.1
3.2274129 -0.6860078 -0.38585263 14.1
3.2252259 -0.70557201 -0.38608491 13.1
3.2288611 -0.72587901 -0.38701412 14.1
3.2186904 -0.74368495 -0.38631722 13.1
3.225951 -0.76496083 -0.38771105 13.1
3.2216282 -0.78296596 -0.38771105 13.1
3.2207801 -0.80303073 -0.38817564 13.1
3.2161016 -0.82156765 -0.38817564 13.1
3.2191505 -0.84152645 -0.38910484 12.1
3.2121813 -0.86010057 -0.38887253 13.1
3.214684 -0.88124746 -0.38980174 12.1
3.2152934 -0.90135664 -0.39049867 11.1
3.2138677 -0.92095476 -0.39096326 12.1
3.2140651 -0.9416855 -0.39166015 13.1
3.2106588 -0.96019059 -0.39189246 13.1
3.2092168 -0.97870672 -0.39235705 12.1
3.2049005 -0.99944276 -0.39258936 12.1
3.202877 -1.0190896 -0.39305398 12.1
3.2043307 -1.0405319 -0.39398319 13.1
3.1982844 -1.0589701 -0.39398319 12.1
3.1960847 -1.0780859 -0.39444777 13.1
3.197145 -1.0996171 -0.39537698 12.1
3.2001321 -1.1212974 -0.3965385 12.1
3.1973627 -1.1410455 -0.39700308 12.1
3.1928072 -1.1595631 -0.39723539 12.1
3.1914592 -1.1805567 -0.39793229 11.1
3.1955512 -1.2036755 -0.39932612 11.1
3.1922755 -1.2234824 -0.3997907 12.1
3.1849589 -1.242404 -0.3997907 11.1
3.1869826 -1.2643901 -0.40095222 11.1
3.1872406 -1.2851412 -0.40188143 11.1
3.1795585 -1.304032 -0.40188143 11.1
3.1793292 -1.3253806 -0.40281063 11.1
3.1810234 -1.3469894 -0.40397215 11.1
3.1839218 -1.3705547 -0.40536594 12.1
3.1684532 -1.3862393 -0.40443674 12.1
3.1731236 -1.410112 -0.40606284 12.1
3.1703811 -1.4308158 -0.40675974 11.1
3.1726692 -1.4545712 -0.40815356 12.1
3.166297 -1.4731059 -0.40838587 13.1
3.1682761 -1.4969608 -0.40977967 12.1
3.1685574 -1.5194786 -0.41094118 12.1
3.1633258 -1.5394413 -0.41140577 12.1
3.1594779 -1.5608251 -0.41210267 12.1
3.1539876 -1.5807766 -0.41256729 10.1
3.157506 -1.6046669 -0.41419339 11.1
3.1514592 -1.6251965 -0.41465801 11.1
3.1455669 -1.6451619 -0.4151226 10.1
3.146569 -1.6688361 -0.41651642 11.1
3.1436081 -1.6912433 -0.41744563 10.1
3.1428337 -1.7135286 -0.41860712 10.1
3.1395638 -1.7359931 -0.41953632 11.1
3.1329789 -1.7559893 -0.42000094 10.1
3.1328659 -1.7804388 -0.42139474 11.1
3.1311662 -1.8034103 -0.42255625 11.1
3.1279085 -1.8248739 -0.42348546 10.1
3.1255736 -1.848459 -0.42464697 10.1
3.1250992 -1.8725564 -0.42604077 11.1
3.1156301 -1.8920991 -0.42627308 10.1
3.116859 -1.9167546 -0.42789918 10.1
3.1138594 -1.9404696 -0.4290607 10.1
3.1127105 -1.9647337 -0.43045449 10.1
3.0996692 -1.9815589 -0.43022218 4.0999999
0.041774653 4.6930356 -2.3573663 28.1
0.069649301 4.6944919 -2.358264 28.1
0.096686333 4.6940131 -2.358264 26.1
0.12362596 4.689805 -2.3564687 29.1
0.15139578 4.6872025 -2.355571 15.1
0.17621812 4.6505656 -2.3376169 9.1000004
0.20159715 4.6173339 -2.3214583 9.1000004
0.22748789 4.585711 -2.3061974 8.1000004
0.25161788 4.5576019 -2.2927318 8.1000004
0.27669472 4.5239186 -2.2765732 8.1000004
0.30071643 4.4919353 -2.2613122 9.1000004
0.32360059 4.4598827 -2.2460513 9.1000004
0.34859467 4.4293156 -2.231688 11.1
0.37092432 4.3988051 -2.2173247 11.1
0.39352608 4.3663359 -2.2020638 11.1
0.41703555 4.3390174 -2.189496 11.1
0.43764418 4.3010602 -2.1715419 11.1
0.46105319 4.278841 -2.1616673 11.1
0.48246258 4.2477021 -2.1473041 11.1
0.50490129 4.2216949 -2.1356339 11.1
0.52564877 4.1903439 -2.1212707 11.1
0.54602325 4.1643062 -2.1096005 10.1
0.56683916 4.1326623 -2.0952373 10.1
0.58734232 4.1063294 -2.0835671 10.1
0.60677135 4.074595 -2.0692039 10.1
0.6252616 4.0482907 -2.0575337 9.1000004
0.64572561 4.0179272 -2.0440683 10.1
0.66533142 3.9929867 -2.0332959 10.1
0.68475562 3.9643123 -2.0207279 10.1
0.7031762 3.9356718 -2.0081601 11.1
0.72096527 3.9051938 -1.9946946 10.1
0.74009967 3.8834205 -1.9857175 10.1
0.75864619 3.8561635 -1.9740474 11.1
0.77591372 3.8308465 -1.963275 10.1
0.79352021 3.8016815 -1.9507072 10.1
0.81014967 3.7725849 -1.9381393 10.1
0.827241 3.7469141 -1.927367 10.1
0.84366834 3.7194293 -1.9156967 11.1
0.86183357 3.7005832 -1.9085152 10.1
0.87795818 3.6710691 -1.8959473 9.1000004
0.89398175 3.6506419 -1.887868 10.1
0.90996915 3.6227391 -1.8761979 10.1
0.92565703 3.5947754 -1.8645277 10.1
0.9422453 3.5738311 -1.8564484 10.1
0.95676088 3.5459135 -1.8447783 10.1
0.97350347 3.5246689 -1.836699 10.1
0.98783404 3.5002568 -1.8268243 10.1
1.0021443 3.4720106 -1.8151541 10.1
1.0165645 3.4473245 -1.8052794 10.1
1.0322797 3.4277222 -1.7980977 10.1
1.047803 3.4080534 -1.7909162 10.1
1.060459 3.3797939 -1.7792461 10.1
1.0750037 3.3583107 -1.7711667 10.1
1.0882272 3.333375 -1.761292 9.1000004
1.1012118 3.3065109 -1.7505195 9.1000004
1.1162162 3.2882669 -1.7442356 9.1000004
1.128126 3.2615151 -1.7334632 9.1000004
1.1415467 3.2397928 -1.7253839 9.1000004
1.1547126 3.216141 -1.7164068 9.1000004
1.1664673 3.1909726 -1.7065321 9.1000004
1.1798404 3.1708012 -1.6993505 9.1000004
1.19302 3.1505821 -1.692169 9.1000004
1.2066486 3.1319845 -1.685885 9.1000004
1.2155378 3.101687 -1.6733172 8.1000004
1.2299502 3.0844586 -1.667931 8.1000004
1.2411166 3.0626338 -1.6598517 8.1000004
1.250867 3.0393467 -1.6508746 8.1000004
1.2644144 3.0182402 -1.643693 8.1000004
1.2756537 2.9979751 -1.6365113 8.1000004
1.2861357 2.9720843 -1.6266366 8.1000004
1.2984011 2.9550374 -1.6212504 8.1000004
1.3103008 2.9360857 -1.6149665 8.1000004
1.3203206 2.9119813 -1.6059895 8.1000004
1.3340808 2.8978348 -1.6023986 9.1000004
1.3431817 2.8739121 -1.5934217 10.1
1.3512856 2.8483663 -1.5835469 9.1000004
1.3645672 2.8340952 -1.5799562 10.1
1.3735123 2.8098912 -1.5709791 9.1000004
1.3844212 2.7925689 -1.5655929 9.1000004
1.3937384 2.7699358 -1.5575136 9.1000004
1.4039814 2.7507195 -1.5512296 10.1
1.4127514 2.7301371 -1.5440481 9.1000004
1.4263169 2.719039 -1.5422527 9.1000004
1.435341 2.6960773 -1.5341733 9.1000004
1.4449028 2.6767566 -1.5278894 9.1000004
1.4556118 2.6587296 -1.5225031 10.1
1.4635022 2.6380558 -1.5153215 10.1
1.4729971 2.6184211 -1.5090376 10.1
1.4800866 2.5959206 -1.5009583 10.1
1.4896485 2.5780683 -1.4955721 11.1
1.4999571 2.5617342 -1.4910836 10.1
1.5101271 2.5453675 -1.486595 10.1
1.5141528 2.517982 -1.4758227 11.1
1.5267704 2.5061667 -1.4740273 10.1
1.5355479 2.4882061 -1.468641 11.1
1.543222 2.4687126 -1.4623572 11.1
1.5507227 2.4492133 -1.4560732 10.1
1.5580502 2.4297099 -1.4497893 10.1
1.5681249 2.4147005 -1.4461985 10.1
1.577515 2.3978872 -1.44171 10.1
1.5853544 2.3798373 -1.4363238 10.1
1.5920392 2.3602951 -1.4300399 10.1
1.6009765 2.3434277 -1.4255513 11.1
1.609974 2.3285694 -1.4219605 10.1
1.6165879 2.3087268 -1.4156766 10.1
1.6236572 2.2906291 -1.4102904 10.1
1.6280919 2.2699072 -1.4031087 9.1000004
1.6394327 2.2573137 -1.4013133 10.1
1.6449966 2.2377541 -1.3950294 10.1
1.6525236 2.2210732 -1.390541 10.1
1.6588382 2.2029521 -1.3851547 11.1
1.6660824 2.186254 -1.3806661 11.1
1.6779348 2.1749139 -1.3797685 11.1
1.6827346 2.1553524 -1.3734846 11.1
1.6929047 2.1428201 -1.3716892 11.1
1.6944283 2.1187789 -1.3627121 11.1
1.7017393 2.1037245 -1.3591213 11.1
1.7073997 2.0852921 -1.3537351 12.1
1.7148211 2.0699186 -1.3501443 14.1
1.720974 2.0531592 -1.3456558 12.1
1.7293029 2.039124 -1.3429627 12.1
1.734036 2.020992 -1.3375765 12.1
1.740961 2.0055726 -1.3339857 12.1
1.74825 1.9920939 -1.3312925 12.1
1.7524211 1.971719 -1.3250086 12.1
1.7562376 1.9539258 -1.3196224 12.1
1.7629911 1.9381814 -1.3160316 12.1
1.7704943 1.9240497 -1.3133385 13.1
1.775458 1.9072798 -1.30885 12.1
1.7818428 1.891507 -1.3052592 12.1
1.7902416 1.8786254 -1.3034638 12.1
1.7923493 1.8592763 -1.2971799 13.1
1.7980371 1.8438042 -1.2935891 13.1
1.8036063 1.8283285 -1.2899983 13.1
1.810636 1.8137989 -1.2873051 13.1
1.8118501 1.7948537 -1.2810212 13.1
1.8177052 1.7812718 -1.2783282 13.1
1.8250083 1.7660872 -1.275635 14.1
1.8296785 1.7509243 -1.2720442 13.1
1.8361409 1.7363521 -1.2693511 13.1
1.8408886 1.7208661 -1.2657603 13.1
1.8468317 1.706596 -1.2630672 13.1
1.8516471 1.6907862 -1.2594764 14.1
1.8547212 1.674106 -1.2549878 13.1
1.8643324 1.6633959 -1.2549878 14.1
1.8658396 1.6455377 -1.2496016 13.1
1.8698975 1.6300664 -1.2460109 13.1
1.8751931 1.6157697 -1.2433177 13.1
1.8817469 1.602625 -1.2415223 13.1
1.8871214 1.5879782 -1.2388293 13.1
1.8893657 1.5713689 -1.2343407 13.1
1.8970041 1.5593261 -1.233443 14.1
1.8990179 1.5427397 -1.2289546 14.1
1.9025639 1.526969 -1.2253637 14.1
1.9099268 1.5148752 -1.224466 13.1
1.9129937 1.4994396 -1.2208751 14.1
1.9187722 1.4862078 -1.2190797 14.1
1.9202042 1.4697007 -1.2145913 14.1
1.9257863 1.4564607 -1.2127959 15.1
1.9286678 1.4407289 -1.209205 14.1
1.9366841 1.4299347 -1.209205 14.1
1.9408033 1.415258 -1.206512 14.1
1.9387717 1.3967437 -1.200228 14.1
1.9436306 1.3838207 -1.1984326 15.1
1.9520475 1.3719219 -1.1984326 15.1
1.9479358 1.3528426 -1.191251 15.1
1.9542216 1.3405899 -1.1903533 14.1
1.9562234 1.3249607 -1.1867625 15.1
1.9638221 1.3136718 -1.1867625 14.1
1.9638997 1.2974136 -1.182274 14.1
1.9713397 1.286081 -1.182274 13.1
1.971202 1.2698661 -1.1777855 14.1
1.9771947 1.2571876 -1.1768878 14.1
1.9779145 1.2426684 -1.1732969 13.1
1.9839494 1.2296214 -1.1723993 14.1
1.9835879 1.2131644 -1.1679107 14.1
1.9918623 1.202991 -1.1688085 15.1
1.9941525 1.1887535 -1.1661153 14.1
1.999631 1.1759931 -1.1652176 14.1
1.9986423 1.159971 -1.1607292 14.1
2.00529 1.1484405 -1.1607292 15.1
2.0072033 1.1342341 -1.158036 15.1
2.0058978 1.1183033 -1.1535475 14.1
2.011919 1.107434 -1.1535475 14.1
2.0156953 1.093067 -1.1517521 15.1
2.0154655 1.0784196 -1.1481613 15.1
2.0202487 1.0656068 -1.1472636 14.1
2.0231814 1.0523041 -1.1454682 14.1
2.0228474 1.0373719 -1.1418774 14.1
2.0257776 1.0237377 -1.140082 14.1
2.0300405 1.0112562 -1.1391842 13.1
2.0342269 0.99875963 -1.1382866 13.1
2.0351191 0.98469162 -1.1355934 12.1
2.0375302 0.97141564 -1.133798 12.1
2.041641 0.95854807 -1.1329004 12.1
2.0451756 0.94673699 -1.1320026 13.1
2.0426261 0.93087834 -1.1275141 13.1
2.0497446 0.91947234 -1.1284119 14.1
2.0533717 0.90692937 -1.1275141 14.1
2.0552831 0.89366251 -1.1257187 13.1
2.0523341 0.87793601 -1.1212302 15.1
2.0588524 0.8671537 -1.1221279 15.1
2.0573573 0.85218531 -1.1185371 14.1
2.0572662 0.83829844 -1.115844 15.1
2.0653782 0.82776535 -1.1176394 15.1
2.0719166 0.81614965 -1.1185371 8.1000004
2.0664437 0.80069089 -1.113151 7.0999999
2.0678179 0.78714275 -1.1113555 5.0999999
2.0706434 0.77459377 -1.1104578 5.0999999
2.0752034 0.76229274 -1.1104578 5.0999999
2.0760665 0.74947709 -1.1086624 6.0999999
2.0820332 0.73810458 -1.1095601 7.0999999
2.0796244 0.72338802 -1.1059693 10.1
2.0837564 0.7113983 -1.1059693 14.1
2.0861244 0.69881731 -1.1050715 16.1
2.0884168 0.68623263 -1.1041739 16.1
2.0889325 0.67309666 -1.1023785 17.1
2.0877769 0.65907484 -1.0996853 15.1
2.0880108 0.64634728 -1.0978899 15.1
2.0936306 0.63409841 -1.0987877 17.1
2.0919993 0.62087011 -1.0960946 16.1
2.0938244 0.60831219 -1.0951968 17.1
2.0939589 0.59489971 -1.0934014 17.1
2.0955269 0.58271682 -1.0925038 16.1
2.093575 0.56959659 -1.0898106 15.1
2.1004701 0.5577144 -1.091606 16.1
2.0983627 0.54462755 -1.088913 17.1
2.0981851 0.53092247 -1.0871176 17.1
2.1012082 0.51882905 -1.0871176 16.1
2.1058991 0.50713682 -1.0880152 17.1
2.1070452 0.49459097 -1.0871176 15.1
2.1116011 0.48284552 -1.0880152 16.1
2.1091135 0.46951059 -1.0853221 16.1
2.1100359 0.45697695 -1.0844244 15.1
2.1109617 0.44407985 -1.0835267 16.1
2.1117332 0.43155643 -1.082629 16.1
2.115937 0.41973439 -1.0835267 16.1
2.1130543 0.40652764 -1.0808337 16.1
2.1119153 0.393327 -1.0790383 15.1
2.1159046 0.38147387 -1.0799359 16.1
2.1163058 0.36897391 -1.0790383 16.1
2.118396 0.3567788 -1.0790383 16.1
2.1186516 0.34428522 -1.0781405 16.1
2.1188338 0.33180052 -1.0772429 16.1
2.1189981 0.3189553 -1.0763451 16.1
2.1208 0.30674553 -1.0763451 16.1
2.1225314 0.29452559 -1.0763451 16.1
2.1224701 0.28168997 -1.0754474 16.1
2.1222374 0.26960629 -1.0745497 16.1
2.1237998 0.25700802 -1.0745497 17.1
2.1234694 0.24456713 -1.073652 16.1
2.121249 0.23231456 -1.0718566 16.1
2.1261456 0.22009084 -1.073652 16.1
2.1238205 0.20749398 -1.0718566 16.1
2.1249804 0.19525827 -1.0718566 16.1
2.1225402 0.18233907 -1.0700612 17.1
2.1253071 0.17062482 -1.0709589 16.1
2.1227176 0.15774517 -1.0691634 16.1
2.127157 0.145761 -1.0709589 16.1
2.1244171 0.13291252 -1.0691634 15.1
2.1251473 0.12067461 -1.0691634 16.1
2.1257882 0.10880373 -1.0691634 16.1
2.1263964 0.096187204 -1.0691634 16.1
2.126915 0.083938517 -1.0691634 16.1
2.1255896 0.071255863 -1.0682658 16.1
2.1313138 0.059532989 -1.0709589 16.1
2.1226957 0.046688043 -1.0664704 15.1
2.1247165 0.034490496 -1.067368 16.1
2.128454 0.022289934 -1.0691634 16.1
2.1249745 0.0096428944 -1.067368 16.1
2.1267824 -0.002227162 -1.0682658 17.1
2.1285188 -0.014860107 -1.0691634 16.1
2.126611 -0.027096411 -1.0682658 16.1
2.1228459 -0.039278168 -1.0664704 16.1
2.1190019 -0.051787291 -1.064675 16.1
2.1276004 -0.064260714 -1.0691634 16.1
2.1200643 -0.075886689 -1.0655726 16.1
2.1249335 -0.088689581 -1.0682658 17.1
2.1190319 -0.10067234 -1.0655726 17.1
2.1219862 -0.11306554 -1.067368 17.1
2.1230621 -0.12576127 -1.0682658 16.1
2.120543 -0.13750103 -1.067368 16.1
2.1214726 -0.15020831 -1.0682658 17.1
2.1187901 -0.16228807 -1.067368 16.1
2.1160088 -0.17471123 -1.0664704 16.1
2.1149673 -0.18689559 -1.0664704 16.1
2.1192286 -0.19920661 -1.0691634 16.1
2.1126742 -0.21124533 -1.0664704 16.1
2.1149771 -0.223786 -1.0682658 16.1
2.1136119 -0.23633252 -1.0682658 16.1
2.115809 -0.24855043 -1.0700612 17.1
2.1107492 -0.26066336 -1.0682658 17.1
2.1163027 -0.27373305 -1.0718566 17.1
2.1111488 -0.28543854 -1.0700612 16.1
2.1094179 -0.29796124 -1.0700612 16.1
2.1041844 -0.30921805 -1.0682658 16.1
2.1112022 -0.32268223 -1.0727543 17.1
2.10572 -0.3346436 -1.0709589 17.1
2.1055815 -0.34668922 -1.0718566 17.1
2.0999012 -0.35894269 -1.0700612 16.1
2.1013188 -0.37165377 -1.0718566 17.1
2.1027267 -0.38402608 -1.073652 16.1
2.1004107 -0.39649707 -1.073652 17.1
2.0980923 -0.40858793 -1.073652 16.1
2.1027133 -0.42207214 -1.0772429 16.1
2.0949969 -0.43309039 -1.0745497 16.1
2.0942159 -0.44552132 -1.0754474 17.1
2.0950267 -0.45870525 -1.0772429 17.1
2.0923502 -0.47076407 -1.0772429 17.1
2.0912609 -0.4835746 -1.0781405 17.1
2.093658 -0.49684933 -1.0808337 16.1
2.0908504 -0.50853467 -1.0808337 16.1
2.0877957 -0.52093303 -1.0808337 16.1
2.0830293 -0.53250653 -1.0799359 15.1
2.0834808 -0.54503661 -1.0817313 16.1
2.08021 -0.55739057 -1.0817313 16.1
2.0785892 -0.5701977 -1.082629 16.1
2.0787122 -0.58312541 -1.0844244 17.1
2.0787551 -0.59607345 -1.0862198 16.1
2.0751815 -0.60839844 -1.0862198 16.1
2.0717511 -0.6199789 -1.0862198 16.1
2.0700758 -0.63170069 -1.0871176 16.1
2.0660658 -0.64469481 -1.0871176 16.1
2.0708334 -0.65929461 -1.091606 16.1
2.0617855 -0.66991466 -1.088913 16.1
2.0629823 -0.68346471 -1.091606 15.1
2.0625198 -0.69611889 -1.0934014 17.1
2.0600426 -0.70892739 -1.0942992 16.1
2.0559254 -0.72078055 -1.0942992 16.1
2.0517397 -0.73260981 -1.0942992 16.1
2.0492959 -0.74466777 -1.0951968 15.1
2.0498693 -0.75867641 -1.0978899 17.1
2.0520205 -0.77334821 -1.1014807 17.1
2.0441949 -0.78387433 -1.0996853 16.1
2.044502 -0.79794031 -1.1023785 17.1
2.0431948 -0.81102127 -1.1041739 17.1
2.0402906 -0.82308853 -1.1050715 16.1
2.037024 -0.83585978 -1.1059693 16.1
2.032176 -0.84757823 -1.1059693 18.1
2.0307019 -0.86030912 -1.1077647 17.1
2.0321267 -0.87517202 -1.1113555 17.1
2.0268977 -0.88721544 -1.1113555 17.1
2.021754 -0.89887476 -1.1113555 17.1
2.0198011 -0.91197515 -1.113151 17.1
2.0224762 -0.92767036 -1.1176394 16.1
2.0156434 -0.93819731 -1.1167417 16.1
2.013272 -0.95166934 -1.1185371 16.1
2.0093689 -0.96402216 -1.1194348 16.1
2.0053899 -0.97636157 -1.1203325 16.1
2.0043676 -0.99062014 -1.1230257 13.1
2.0034215 -1.0045512 -1.1257187 14.1
1.9993731 -1.0165347 -1.1266165 15.1
1.9933057 -1.0283812 -1.1266165 14.1
1.9889331 -1.0406733 -1.1275141 14.1
1.9860638 -1.0537868 -1.1293095 13.1
1.9876443 -1.0697888 -1.133798 14.1
1.9832076 -1.0817289 -1.1346958 14.1
1.9814452 -1.0960736 -1.1373888 14.1
1.9719816 -1.1057196 -1.1355934 14.1
1.9700465 -1.120052 -1.1382866 14.1
1.9682086 -1.1340567 -1.1409796 14.1
1.9633876 -1.1459324 -1.1418774 14.1
1.9580911 -1.1584733 -1.1427751 15.1
1.9513863 -1.1697317 -1.1427751 14.1
1.9551027 -1.1877866 -1.1490589 15.1
1.9499606 -1.1996238 -1.1499567 14.1
1.9458408 -1.2130649 -1.1517521 14.1
1.9448665 -1.2280687 -1.1553429 15.1
1.9407724 -1.2411758 -1.1571383 15.1
1.9363729 -1.2546142 -1.1589338 14.1
1.9368079 -1.2703103 -1.1634222 14.1
1.9284173 -1.2797825 -1.1625246 14.1
1.923304 -1.2938689 -1.1643199 13.1
1.9172971 -1.305931 -1.1652176 13.1
1.9139272 -1.3203299 -1.1679107 13.1
1.9136173 -1.336448 -1.1723993 13.1
1.9061233 -1.3471147 -1.1723993 13.1
1.9053626 -1.3636028 -1.1768878 14.1
1.8989246 -1.3756026 -1.1777855 13.1
1.8952942 -1.3896872 -1.1804786 13.1
1.8884492 -1.4019749 -1.1813762 14.1
1.8863058 -1.4167933 -1.184967 14.1
1.8849783 -1.4333708 -1.1894556 14.1
1.8781079 -1.4452937 -1.1903533 15.1
1.8694984 -1.456413 -1.1903533 13.1
1.8695002 -1.4737952 -1.1957395 13.1
1.8626372 -1.4853276 -1.1966373 13.1
1.8579624 -1.4997221 -1.1993303 13.1
1.8562149 -1.5160509 -1.2038188 13.1
1.8513182 -1.5304555 -1.206512 14.1
1.8441128 -1.5419177 -1.2074096 13.1
1.8390232 -1.5562972 -1.2101028 13.1
1.8341019 -1.5703504 -1.2127959 13.1
1.8331321 -1.587909 -1.2181821 13.1
1.826365 -1.6011152 -1.2199775 13.1
1.8214061 -1.6148475 -1.2226706 13.1
1.8144519 -1.6280146 -1.224466 14.1
1.8103385 -1.6432428 -1.2280568 13.1
1.8061098 -1.6584775 -1.2316476 13.1
1.805401 -1.677682 -1.2379315 13.1
1.7957083 -1.6880525 -1.2379315 13.1
1.788843 -1.700518 -1.2397269 13.1
1.7877365 -1.7197764 -1.2460109 13.1
1.7816442 -1.7337837 -1.248704 13.1
1.7703552 -1.7427627 -1.2478062 11.1
1.7270619 -1.7204431 -1.224466 3.0999999
0.86841863 -3.4194064 -1.7720644 11.1
0.85154939 -3.4383781 -1.7792461 11.1
0.83760679 -3.4675469 -1.7918139 12.1
0.82253689 -3.4931893 -1.8025863 11.1
0.80520129 -3.5100627 -1.8088702 10.1
0.78964627 -3.5355728 -1.8196427 10.1
0.77282327 -3.5594082 -1.8295174 10.1
0.75762105 -3.5827715 -1.8393921 10.1
0.7403003 -3.606462 -1.8492668 10.1
0.72104537 -3.6249399 -1.8564484 11.1
0.70519406 -3.6517227 -1.8681185 11.1
0.68811041 -3.6804378 -1.8806864 10.1
0.6700846 -3.7019265 -1.8896635 10.1
0.65310085 -3.7267356 -1.9004358 10.1
0.63514727 -3.7552161 -1.9130037 11.1
0.61609942 -3.7746871 -1.921083 11.1
0.59795922 -3.8011243 -1.9327531 12.1
0.57913405 -3.8293455 -1.945321 13.1
0.56056917 -3.8519745 -1.9551957 12.1
0.54115766 -3.8800144 -1.9677635 12.1
0.52164167 -3.9043245 -1.978536 11.1
0.50140405 -3.9303982 -1.9902061 11.1
0.4822562 -3.9562004 -2.0018761 12.1
0.46255282 -3.9855416 -2.0153418 12.1
0.4410446 -4.0077577 -2.0252166 10.1
0.42128912 -4.0422282 -2.0413752 9.1000004
0.40027601 -4.0677094 -2.0530453 9.1000004
0.37865371 -4.0895228 -2.0629199 11.1
0.35694787 -4.1130023 -2.0736923 12.1
0.33498189 -4.1453319 -2.0889533 12.1
0.31343293 -4.1685243 -2.0997257 12.1
0.289933 -4.1988888 -2.114089 11.1
0.26772225 -4.2200623 -2.1239638 12.1
0.24516109 -4.2518668 -2.1392248 12.1
0.22149475 -4.2835889 -2.1544857 11.1
0.19855519 -4.3061829 -2.1652579 11.1
0.17393085 -4.3305001 -2.1769283 12.1
0.14978491 -4.35465 -2.1885984 22.1
0.12607928 -4.3768563 -2.1993706 36.099998
0.099137656 -4.3686113 -2.1948822 32.099998
0.03684606 4.6912894 -2.3564687 27.1
0.063142523 4.6981587 -2.3600595 28.1
0.090986066 4.6959147 -2.3591619 28.1
0.1179411 4.6917391 -2.3573663 29.1
0.14468546 4.6820502 -2.3528779 19.1
3.0461092 4.7484479 -0.5263257 30.1
3.085341 4.7491937 -0.52836931 26.1
3.1222267 4.7441087 -0.52985561 26.1
3.1461861 4.721076 -0.52929825 24.1
3.153276 4.6731644 -0.52595413 20.1
3.1584792 4.621489 -0.52223843 14.1
3.163851 4.574297 -0.51889431 12.1
3.1703751 4.5260835 -0.51555026 13.1
3.1745055 4.4768844 -0.51202035 12.1
3.179724 4.4315796 -0.50886202 13.1
3.1837261 4.3820233 -0.50533211 13.1
3.1912158 4.3395495 -0.50254536 12.1
3.1923773 4.2891488 -0.49882969 13.1
3.2002537 4.2484226 -0.49622869 14.1
3.2029386 4.2014146 -0.49288461 12.1
3.2059138 4.1539578 -0.48954049 12.1
3.2077224 4.1071749 -0.48619637 11.1
3.2115688 4.0636344 -0.48322383 12.1
3.2194543 4.0242906 -0.48080865 12.1
3.2218373 3.9814787 -0.4778361 12.1
3.2264798 3.9391818 -0.47504935 11.1
3.2275126 3.8944681 -0.47189102 9.1000004
3.2306974 3.8529258 -0.46910426 9.1000004
3.2309346 3.8084395 -0.46594593 9.1000004
3.2385492 3.7731459 -0.46390232 9.1000004
3.2393365 3.7303734 -0.46092978 9.1000004
3.2410796 3.6918416 -0.45832881 9.1000004
3.2470109 3.6520579 -0.4559136 9.1000004
3.2473855 3.6116543 -0.45312685 9.1000004
3.2540178 3.5761189 -0.45108321 9.1000004
3.2583768 3.5397365 -0.44885382 9.1000004
3.2583539 3.4990511 -0.44606707 9.1000004
3.2640374 3.4637122 -0.44402343 9.1000004
3.2688184 3.4290006 -0.44197983 9.1000004
3.2677791 3.3886154 -0.43919307 9.1000004
3.2733364 3.3554838 -0.43733522 8.1000004
3.2744246 3.3181489 -0.43492004 9.1000004
3.2757647 3.2803416 -0.43250483 9.1000004
3.2812996 3.2493844 -0.43083277 8.1000004
3.2774947 3.2106805 -0.42804602 8.1000004
3.2875843 3.1803324 -0.42674553 8.1000004
3.2923446 3.1495326 -0.42507347 8.1000004
3.2921638 3.1121564 -0.42265829 8.1000004
3.2954843 3.0795472 -0.42080045 8.1000004
3.2956133 3.0443008 -0.41857105 8.1000004
3.3018544 3.0139506 -0.41708478 8.1000004
3.29846 2.976207 -0.41448382 8.1000004
3.3006856 2.9439054 -0.41262597 8.1000004
3.3071303 2.9156275 -0.41132548 8.1000004
3.3043513 2.879524 -0.4089103 8.1000004
3.3057933 2.8474486 -0.40705246 8.1000004
3.3115246 2.8193252 -0.40575197 8.1000004
3.3129575 2.7868059 -0.40389413 8.1000004
3.3136406 2.7549477 -0.40203628 8.1000004
3.3140674 2.7231743 -0.40017846 8.1000004
3.3173301 2.6939988 -0.39869219 8.1000004
3.3223853 2.6655428 -0.39739168 8.1000004
3.3220787 2.6339912 -0.39553386 8.1000004
3.3246543 2.6049883 -0.39404759 8.1000004
3.3254318 2.5748243 -0.39237553 8.1000004
3.3259726 2.5447383 -0.39070347 8.1000004
3.3326316 2.5195353 -0.38977456 8.1000004
3.3315682 2.4878001 -0.38791671 8.1000004
3.3325932 2.4596939 -0.38643044 8.1000004
3.3390844 2.4340098 -0.38550153 8.1000004
3.3401206 2.4054279 -0.38401526 8.1000004
3.3453908 2.3809624 -0.38308632 8.1000004
3.3403196 2.346745 -0.38085693 8.1000004
3.3402879 2.3189676 -0.37937066 8.1000004
3.3404503 2.2906811 -0.37788439 9.1000004
3.3473887 2.2663524 -0.37714124 8.1000004
3.3487988 2.2392871 -0.37584075 8.1000004
3.3466852 2.2100861 -0.37416869 8.1000004
3.3510187 2.1853352 -0.37323979 8.1000004
3.35183 2.1584516 -0.3719393 8.1000004
3.3528152 2.1310461 -0.37063882 10.1
3.354178 2.1065199 -0.36952412 10.1
3.3568265 2.0796988 -0.3684094 10.1
3.3589144 2.0535102 -0.3672947 10.1
3.3566928 2.026485 -0.36580843 10.1
3.3563342 1.9999828 -0.36450794 9.1000004
3.3612764 1.9759941 -0.36376482 10.1
3.3605442 1.9496069 -0.36246431 10.1
3.3630762 1.9252725 -0.3615354 10.1
3.3619721 1.8990151 -0.36023492 10.1
3.3676355 1.8767121 -0.35967755 10.1
3.3672719 1.8527043 -0.35856286 10.1
3.3665912 1.8248678 -0.35726237 10.1
3.366195 1.8004018 -0.35614768 10.1
3.3697734 1.7766799 -0.35540453 10.1
3.3693492 1.7517306 -0.35428983 10.1
3.3722942 1.728662 -0.35354671 10.1
3.3700507 1.7023351 -0.35224622 10.1
3.3673213 1.6766837 -0.35094571 8.1000004
3.3715594 1.6546296 -0.35038838 7.0999999
3.3720698 1.6308484 -0.34945944 5.0999999
3.3688233 1.6054031 -0.34815896 3.0999999
3.3674743 1.580308 -0.34704426 4.0999999
3.3741679 1.5612289 -0.34685847 7.0999999
3.3706877 1.5354004 -0.34555799 9.1000004
3.3761053 1.513742 -0.34518641 8.1000004
3.3756592 1.4902508 -0.3442575 11.1
3.3750548 1.4668152 -0.3433286 11.1
3.3763754 1.44363 -0.34258544 10.1
3.3788795 1.4224324 -0.34202811 11.1
3.3799012 1.3993099 -0.34128496 11.1
3.3805275 1.3768154 -0.34054184 11.1
3.3828557 1.3551008 -0.33998448 11.1
3.3815727 1.3313552 -0.33905557 11.1
3.3796709 1.3088526 -0.33812663 10.1
3.3817947 1.2866499 -0.3375693 11.1
3.3816881 1.2643614 -0.33682615 11.1
3.3797846 1.2408403 -0.33589724 10.1
3.3810425 1.2199173 -0.33533987 9.1000004
3.3880126 1.2004237 -0.33533987 9.1000004
3.383791 1.1763744 -0.33422518 10.1
3.3810868 1.1536505 -0.33329627 10.1
3.3876753 1.1341578 -0.33329627 11.1
3.3884754 1.1127635 -0.33273891 11.1
3.3872464 1.0907874 -0.33199576 11.1
3.3860631 1.0682714 -0.33125263 10.1
3.384367 1.0469893 -0.33050948 11.1
3.3849816 1.0245653 -0.32995215 10.1
3.388742 1.005078 -0.32976636 10.1
3.3849127 0.98276746 -0.32883745 10.1
3.3868537 0.96157604 -0.32846588 11.1
3.3844967 0.94051266 -0.32772273 10.1
3.3858535 0.92055064 -0.32735118 10.1
3.3856394 0.89831847 -0.32679382 10.1
3.3867486 0.87839574 -0.32642224 11.1
3.3843288 0.85573834 -0.32567912 11.1
3.3930681 0.83718598 -0.3260507 10.1
3.3881531 0.81530011 -0.32512176 11.1
3.3850377 0.79395342 -0.32437864 10.1
3.3876131 0.77400041 -0.32419285 11.1
3.3900709 0.75404406 -0.32400706 9.1000004
3.3787873 0.73113698 -0.32252079 7.0999999
3.3811176 0.71066445 -0.322335 7.0999999
3.3832035 0.69078058 -0.32214922 2.0999999
3.3812659 0.67012197 -0.32159188 3.0999999
3.3849552 0.62980902 -0.32122031 11.1
3.3846068 0.60959679 -0.32084873 11.1
3.3841381 0.58940947 -0.32047716 11.1
3.3855131 0.56957817 -0.3202914 11.1
3.3887374 0.55006969 -0.3202914 11.1
3.3918493 0.53054291 -0.3202914 11.1
3.3850918 0.5089258 -0.31936246 11.1
3.3879669 0.48942071 -0.31936246 11.1
3.3848119 0.46907935 -0.31880513 11.1
3.3816137 0.44820037 -0.31824777 11.1
3.3899906 0.43005887 -0.31880513 11.1
3.3845751 0.40897924 -0.31806198 11.1
3.3848963 0.38925129 -0.31787619 10.1
3.3810787 0.36969116 -0.31731886 11.1
3.3851938 0.34982574 -0.31750461 11.1
3.3911164 0.33070931 -0.31787619 11.1
3.3870158 0.31062689 -0.31731886 11.1
3.3848312 0.29018241 -0.31694728 11.1
3.3844142 0.2711145 -0.31676149 11.1
3.3859634 0.25102633 -0.31676149 11.1
3.3853662 0.23138472 -0.31657571 11.1
3.3866796 0.21129161 -0.31657571 7.0999999
3.3778996 0.1912196 -0.3156468 3.0999999
3.394825 0.17316251 -0.31713307 3.0999999
3.3619742 0.15149041 -0.31397474 3.0999999
3.3774476 0.1126316 -0.31527522 11.1
3.3839955 0.09393248 -0.31583259 11.1
3.3785207 0.073719583 -0.31527522 11.1
3.3808804 0.054291561 -0.31546101 11.1
3.3791459 0.034797791 -0.31527522 11.1
3.3792927 0.01474504 -0.31527522 11.1
3.3793225 -0.0041286233 -0.31527522 11.1
3.3792386 -0.024181737 -0.31527522 11.1
3.3770521 -0.043618526 -0.31508943 11.1
3.3727627 -0.062993743 -0.31471786 11.1
3.3763111 -0.083104894 -0.31508943 11.1
3.3757763 -0.10254957 -0.31508943 11.1
3.3711708 -0.1212586 -0.31471786 11.1
3.3723814 -0.14134467 -0.31490365 11.1
3.3715115 -0.16076574 -0.31490365 11.1
3.3685412 -0.18007517 -0.31471786 7.0999999
3.3694012 -0.20017931 -0.31490365 6.0999999
3.3702178 -0.21912357 -0.31508943 5.0999999
3.3728309 -0.23940086 -0.31546101 13.1
3.3654394 -0.2583656 -0.31490365 11.1
3.3678162 -0.27866027 -0.31527522 11.1
3.368139 -0.29822841 -0.31546101 11.1
3.3664207 -0.3170349 -0.31546101 11.1
3.3743875 -0.3379983 -0.31638992 5.0999999
3.3605032 -0.35616839 -0.31527522 2.0999999
3.3622885 -0.37654686 -0.3156468 3.0999999
3.3541999 -0.39462143 -0.31508943 3.0999999
3.3478465 -0.41402978 -0.31471786 6.0999999
3.3592303 -0.43509552 -0.31601834 10.1
3.3586421 -0.45470312 -0.31620413 11.1
3.359828 -0.47518334 -0.31657571 11.1
3.3551517 -0.49365076 -0.31638992 11.1
3.3561897 -0.51356918 -0.31676149 11.1
3.3530829 -0.53347605 -0.31676149 11.1
3.3500512 -0.55219477 -0.31676149 11.1
3.3505411 -0.57332039 -0.31713307 11.1
3.3491445 -0.59295565 -0.31731886 11.1
3.3457806 -0.61165148 -0.31731886 11.1
3.3440487 -0.63186455 -0.31750461 11.1
3.3501267 -0.65301925 -0.31843355 11.1
3.3443577 -0.67191142 -0.31824777 11.1
3.3462827 -0.69237274 -0.31880513 11.1
3.344187 -0.71204907 -0.31899089 11.1
3.3476837 -0.73358625 -0.31973404 12.1
3.3472884 -0.75373018 -0.32010561 12.1
3.3408167 -0.77313101 -0.31991982 11.1
3.3421206 -0.79374021 -0.32047716 12.1
3.3415053 -0.81333554 -0.32084873 12.1
3.338552 -0.83363247 -0.32103452 11.1
3.339483 -0.8543278 -0.32159188 12.1
3.336586 -0.87346989 -0.32177767 12.1
3.3390377 -0.89531708 -0.32252079 11.1
3.3355861 -0.91564256 -0.32270658 11.1
3.3360088 -0.93645346 -0.32326391 12.1
3.3324742 -0.95620108 -0.3234497 11.1
3.3286521 -0.97652 -0.32363549 12.1
3.3307769 -0.99738032 -0.32437864 11.1
3.3291409 -1.0165499 -0.32475019 12.1
3.3264899 -1.0386344 -0.32512176 11.1
3.3185551 -1.0571718 -0.32493597 11.1
3.323586 -1.0805399 -0.3260507 11.1
3.322978 -1.1015441 -0.32660803 11.1
3.3224342 -1.1219972 -0.3271654 11.1
3.3194833 -1.1429898 -0.32753697 11.1
3.3222406 -1.1653854 -0.32846588 11.1
3.3154736 -1.1845007 -0.32846588 11.1
3.3144207 -1.2050405 -0.32902324 11.1
3.3146813 -1.2274534 -0.32976636 12.1
3.3073392 -1.2471014 -0.32976636 11.1
3.3112569 -1.2704093 -0.33088106 12.1
3.3092246 -1.2922093 -0.33143842 11.1
3.3091302 -1.3141875 -0.33218154 11.1
3.3072786 -1.3348846 -0.33273891 11.1
3.3011413 -1.3552431 -0.33292469 11.1
3.3043075 -1.3788348 -0.33403939 11.1
3.3020556 -1.3995994 -0.33459675 11.1
3.2991784 -1.4215333 -0.33515409 11.1
3.294333 -1.4426836 -0.33552566 10.1
3.2950666 -1.4656802 -0.33645457 11.1
3.2938294 -1.4879131 -0.33719772 6.0999999
3.2885618 -1.5090939 -0.3375693 8.1000004
3.287303 -1.5307996 -0.33831242 7.0999999
3.285362 -1.5536851 -0.33905557 5.0999999
3.2781544 -1.5734433 -0.33924133 8.1000004
3.2833598 -1.599274 -0.3407276 8.1000004
3.280952 -1.6222601 -0.34147075 8.1000004
3.2786739 -1.6447015 -0.34221387 10.1
3.2765369 -1.6665986 -0.34295702 9.1000004
3.2754371 -1.6905792 -0.34388593 11.1
3.2727029 -1.7131102 -0.34462908 11.1
3.2715764 -1.7365994 -0.34555799 11.1
3.2682271 -1.7597589 -0.34630114 11.1
3.2670879 -1.7827539 -0.34723005 11.1
3.2669055 -1.8078949 -0.34834474 11.1
3.2651224 -1.831552 -0.34927368 7.0999999
3.2593894 -1.8538488 -0.34983101 7.0999999
3.2590094 -1.8785576 -0.35094571 7.0999999
3.2587848 -1.9027544 -0.35206044 6.0999999
3.24915 -1.9230732 -0.35224622 6.0999999
3.2550983 -1.9519962 -0.35410404 6.0999999
3.2502644 -1.9754149 -0.35484719 6.0999999
0.26052606 4.689218 -2.2230108 26.1
0.28856966 4.6911979 -2.2247221 29.1
0.31570548 4.6912618 -2.2255778 27.1
0.3417699 4.6876225 -2.2247221 28.1
0.36840394 4.6602178 -2.2127428 12.1
0.3921378 4.6310687 -2.199908 11.1
0.41619784 4.5999274 -2.1862173 9.1000004
0.44018894 4.563189 -2.1699598 9.1000004
0.46309686 4.5354819 -2.1579804 9.1000004
0.48631111 4.4985065 -2.1417229 9.1000004
0.50893819 4.4668932 -2.1280322 10.1
0.53285265 4.4422565 -2.1177642 10.1
0.5543679 4.4068294 -2.1023624 10.1
0.5749656 4.3731956 -2.0878162 10.1
0.59696603 4.3410525 -2.0741255 10.1
0.61862308 4.31428 -2.0630019 10.1
0.63919097 4.2820392 -2.0493114 10.1
0.65764815 4.2481484 -2.034765 10.1
0.6792742 4.2172813 -2.0219302 10.1
0.69997978 4.1919026 -2.0116622 9.1000004
0.72052616 4.1627378 -1.9996829 9.1000004
0.7393927 4.1300483 -1.9859923 9.1000004
0.75889313 4.1026125 -1.9748688 9.1000004
0.77742416 4.0715389 -1.9620337 9.1000004
0.79702687 4.0437975 -1.9509102 9.1000004
0.81456649 4.0144801 -1.9389309 9.1000004
0.8335647 3.986573 -1.9278073 9.1000004
0.85194975 3.9604986 -1.9175394 10.1
0.8681106 3.9255197 -1.9029931 10.1
0.88710099 3.9045897 -1.8952922 10.1
0.90423661 3.8765295 -1.8841685 10.1
0.92090809 3.8447256 -1.8713336 10.1
0.9365294 3.8186185 -1.8610656 10.1
0.95388097 3.7919567 -1.8507977 10.1
0.97049785 3.7634735 -1.8396741 10.1
0.98569709 3.7333519 -1.8276948 10.1
1.0010533 3.704926 -1.8165712 10.1
1.0186841 3.6832397 -1.8088702 10.1
1.0338317 3.6583574 -1.7994579 10.1
1.0484957 3.6278453 -1.7874787 10.1
1.0637422 3.6026752 -1.7780664 10.1
1.0776898 3.5739892 -1.7669427 10.1
1.0934699 3.5521734 -1.7592418 10.1
1.107951 3.5268457 -1.7498295 10.1
1.1216252 3.4997482 -1.7395616 10.1
1.1367091 3.4777658 -1.7318606 10.1
1.1510366 3.4520953 -1.7224483 10.1
1.1662467 3.431716 -1.715603 10.1
1.1783028 3.4027355 -1.7044795 10.1
1.1912667 3.37714 -1.6950672 10.1
1.2045599 3.3512988 -1.6856549 10.1
1.2182509 3.3290269 -1.6779538 10.1
1.2310942 3.3050148 -1.6693972 10.1
1.2437017 3.280966 -1.6608406 10.1
1.2560732 3.2568822 -1.652284 10.1
1.2695291 3.236131 -1.6454387 10.1
1.2820086 3.2117515 -1.6368821 10.1
1.2938107 3.189465 -1.6291811 10.1
1.3034739 3.1640322 -1.6197689 10.1
1.318435 3.1441104 -1.6137792 10.1
1.3267655 3.115077 -1.6026556 9.1000004
1.34074 3.0953026 -1.596666 9.1000004
1.3521843 3.0745282 -1.5898206 9.1000004
1.362497 3.050184 -1.581264 9.1000004
1.3738495 3.0272298 -1.5735631 10.1
1.3852099 3.0061326 -1.5667177 10.1
1.3963732 2.9850051 -1.5598725 10.1
1.4057884 2.9605834 -1.5513159 10.1
1.4173232 2.9410381 -1.5453262 10.1
1.4283952 2.9195855 -1.5384809 10.1
1.4390544 2.9002271 -1.5324913 10.1
1.4481083 2.8754911 -1.5239347 10.1
1.4564221 2.8510048 -1.515378 10.1
1.4681656 2.8348 -1.5110997 11.1
1.4772527 2.8137517 -1.5042545 12.1
1.4876127 2.7919123 -1.4974091 10.1
1.4976536 2.7721648 -1.4914196 10.1
1.5106028 2.7568874 -1.4879968 10.1
1.516324 2.7310228 -1.4785845 11.1
1.5254085 2.7093749 -1.4717393 11.1
1.5347166 2.6895537 -1.4657496 11.1
1.544752 2.6712804 -1.4606156 11.1
1.5518862 2.6483021 -1.4529147 12.1
1.561576 2.6299937 -1.4477807 12.1
1.5715624 2.6113877 -1.4426467 12.1
1.5809306 2.5930321 -1.4375128 12.1
1.5891898 2.5731175 -1.4315231 12.1
1.5991896 2.5562592 -1.4272448 12.1
1.6071131 2.5363171 -1.4212552 12.1
1.6138839 2.5148478 -1.4144099 12.1
1.6253862 2.5009637 -1.4118429 12.1
1.630258 2.4761758 -1.4032862 12.1
1.6384761 2.4577205 -1.3981524 12.1
1.6475474 2.4407513 -1.3938739 13.1
1.6548603 2.4204857 -1.3878844 11.1
1.66321 2.4037726 -1.3836061 11.1
1.6712207 2.3849781 -1.3784721 11.1
1.6796999 2.3679409 -1.3741938 11.1
1.6855199 2.3482428 -1.3682041 12.1
1.6919852 2.3279634 -1.3622144 12.1
1.7010804 2.312355 -1.3587918 12.1
1.7078929 2.2938197 -1.3536578 12.1
1.7134606 2.273839 -1.3476682 12.1
1.7199512 2.2553079 -1.3425343 12.1
1.7277805 2.2379074 -1.3382559 12.1
1.7373023 2.2236457 -1.3356889 12.1
1.7411118 2.2022581 -1.3288436 12.1
1.7507609 2.1876533 -1.3262767 12.1
1.7527151 2.1651955 -1.3185757 12.1
1.7632413 2.1519601 -1.3168644 13.1
1.7709914 2.1362023 -1.3134418 13.1
1.7751335 2.1162717 -1.3074521 13.1
1.7849535 2.103256 -1.3057407 13.1
1.7864392 2.0805969 -1.2980398 13.1
1.7924653 2.0634499 -1.2937615 13.1
1.8012177 2.0510049 -1.2920501 13.1
1.8080621 2.0328934 -1.2877718 13.1
1.8133432 2.0160434 -1.2834935 13.1
1.8191904 1.9985632 -1.2792152 12.1
1.8245484 1.9814034 -1.2749369 12.1
1.8297693 1.9642483 -1.2706586 12.1
1.8364331 1.9480941 -1.267236 12.1
1.8438801 1.93356 -1.2646689 12.1
1.8487107 1.9164029 -1.2603906 12.1
1.8508798 1.896667 -1.254401 12.1
1.8617731 1.8859754 -1.254401 13.1
1.8639888 1.8659418 -1.2484114 14.1
1.8692422 1.8504152 -1.2449887 14.1
1.8753519 1.8364803 -1.2424217 14.1
1.8816558 1.8196342 -1.2389991 12.1
1.8839502 1.8016006 -1.2338651 13.1
1.8906662 1.7866645 -1.2312981 14.1
1.8943202 1.7695754 -1.2270198 14.1
1.8991685 1.7537301 -1.2235972 15.1
1.9028651 1.7363369 -1.2193189 15.1
1.9114918 1.7241377 -1.2184632 15.1
1.9146438 1.7070847 -1.2141849 14.1
1.9203755 1.6924431 -1.2116179 14.1
1.9260023 1.6777924 -1.2090509 14.1
1.9260445 1.658415 -1.2030612 14.1
1.932811 1.6449511 -1.20135 15.1
1.9425383 1.6334527 -1.20135 15.1
1.9449627 1.6164602 -1.1970717 15.1
1.948653 1.6006416 -1.1936491 15.1
1.9522258 1.5848343 -1.1902263 14.1
1.9601858 1.5720907 -1.1893706 15.1
1.9607075 1.5540377 -1.1842368 15.1
1.9667794 1.5404898 -1.1825254 15.1
1.9699011 1.5247105 -1.1791028 15.1
1.9714707 1.5078485 -1.1748245 15.1
1.9801226 1.4964687 -1.1748245 15.1
1.9802761 1.478204 -1.1696905 15.1
1.988501 1.467121 -1.1696905 15.1
1.986945 1.4478432 -1.1637008 14.1
1.9893826 1.4321506 -1.1602782 14.1
1.9958773 1.4199696 -1.1594225 15.1
2.0015554 1.4056731 -1.1577111 15.1
2.0004642 1.3882886 -1.1525772 15.1
2.0114088 1.3787879 -1.1542885 15.1
2.0120699 1.3617617 -1.1500102 15.1
2.0153711 1.3471367 -1.1474432 15.1
2.0200794 1.3335149 -1.1457319 15.1
2.0201545 1.3169221 -1.1414536 15.1
2.0246658 1.3033081 -1.1397423 15.1
2.0293124 1.2893318 -1.1380309 15.1
2.0286036 1.2735276 -1.1337526 15.1
2.0363452 1.2611119 -1.1337526 16.1
2.0407078 1.2471205 -1.1320413 15.1
2.0429981 1.2329017 -1.1294743 15.1
2.0438528 1.217414 -1.1260517 15.1
2.047924 1.2034326 -1.1243403 15.1
2.0532575 1.1907105 -1.1234847 15.1
2.0553744 1.1761714 -1.1209177 15.1
2.0573921 1.1616476 -1.1183507 15.1
2.0593109 1.1471395 -1.1157837 15.1
2.0670714 1.1368519 -1.1166394 15.1
2.0662265 1.1195359 -1.1123611 15.1
2.0692587 1.1062739 -1.1106497 10.1
2.0693901 1.0906041 -1.1072271 6.0999999
2.0772412 1.0795008 -1.1080828 7.0999999
2.0673358 1.0592755 -1.0995262 12.1
2.0768127 1.0486187 -1.1012374 14.1
2.0779629 1.0342233 -1.0986705 15.1
2.0871308 1.0238303 -1.1003819 15.1
2.086483 1.0086453 -1.0969591 15.1
2.0938897 0.99738872 -1.0978148 15.1
2.093225 0.98187512 -1.0943922 15.1
2.0968661 0.96977651 -1.0935365 14.1
2.0976484 0.95506924 -1.0909696 14.1
2.0999796 0.94112623 -1.0892582 14.1
2.1020575 0.9275561 -1.0875468 15.1
2.1023908 0.91327304 -1.0849799 15.1
2.1094356 0.90149158 -1.0858356 15.1
2.1094387 0.88759297 -1.0832685 14.1
2.1079872 0.87229496 -1.0798459 14.1
2.1179993 0.86218411 -1.0824128 10.1
2.1178954 0.84795535 -1.0798459 10.1
2.1178434 0.83338684 -1.077279 14.1
2.120779 0.82089311 -1.0764233 13.1
2.120544 0.80636621 -1.0738562 6.0999999
2.1234596 0.79350662 -1.0730006 5.0999999
2.1264338 0.78026915 -1.072145 3.0999999
2.1256571 0.76654112 -1.0695779 4.0999999
2.1317408 0.75488895 -1.0704336 4.0999999
2.1242297 0.73807263 -1.0644439 7.0999999
2.1301565 0.7264092 -1.0652996 12.1
2.1325905 0.7135548 -1.0644439 14.1
2.1332297 0.70013279 -1.0627327 17.1
2.1389477 0.68838853 -1.0635883 15.1
2.1412709 0.67514014 -1.0627327 15.1
2.1380999 0.6610347 -1.05931 15.1
2.147289 0.64953172 -1.061877 15.1
2.1439505 0.63547409 -1.0584544 15.1
2.1423664 0.62160414 -1.0558873 15.1
2.1460173 0.60888022 -1.0558873 15.1
2.145901 0.59591776 -1.054176 15.1
2.1474512 0.5834496 -1.0533204 15.1
2.1474805 0.56939417 -1.051609 15.1
2.1506271 0.55739152 -1.051609 15.1
2.1522393 0.54380095 -1.0507534 17.1
2.1553357 0.53139597 -1.0507534 17.1
2.1530876 0.51770556 -1.0481864 15.1
2.1560338 0.50529617 -1.0481864 15.1
2.1589081 0.49286997 -1.0481864 14.1
2.1581817 0.47964308 -1.0464751 15.1
2.1591415 0.46682292 -1.0456194 15.1
2.1583354 0.45325914 -1.0439081 14.1
2.1573677 0.44009793 -1.0421968 15.1
2.1616402 0.42801625 -1.0430524 15.1
2.1658447 0.41589996 -1.0439081 15.1
2.1700518 0.40337071 -1.0447638 15.1
2.1670015 0.38990512 -1.0421968 14.1
2.1674304 0.37710783 -1.0413411 15.1
2.1677837 0.36431855 -1.0404854 14.1
2.1698461 0.35182703 -1.0404854 15.1
2.1682644 0.33876574 -1.0387741 15.1
2.166661 0.32535622 -1.0370628 15.1
2.168499 0.31287181 -1.0370628 15.1
2.1738462 0.30087271 -1.0387741 15.1
2.1720092 0.28749323 -1.0370628 15.1
2.1753745 0.2755852 -1.0379184 15.1
2.1697927 0.2618053 -1.0344958 15.1
2.1730604 0.24951014 -1.0353515 15.1
