# .PCD v0.7 - Point Cloud Data file format
VERSION 0.7
FIELDS x y z
SIZE 4 4 4
TYPE F F F
COUNT 1 1 1
WIDTH 1527
HEIGHT 1
VIEWPOINT 0 0 0 1 0 0 0
POINTS 1527
DATA ascii
-2.5669851 0.23924801 0.40168959
0.31971347 2.7973151 0.30363011
0.82836795 3.2194176 0.36008385
0.93767893 3.2211328 0.2977995
6.1739988 7.8143973 0.093762599
-2.5736456 0.43122092 0.39968151
-2.5768223 0.53868526 0.38565168
0.3110199 2.9203506 0.31179419
0.3478905 3.0678906 0.31883398
0.4948777 3.2234688 0.29061818
6.0135293 7.9885087 0.12085833
-2.5779943 0.65797305 0.4108806
-2.5729871 0.78742164 0.39635399
0.013902903 3.0671363 0.32273403
0.39236343 3.2157698 0.29563224
5.1530061 7.4082422 0.18283923
5.5942154 7.9737511 0.12138288
5.8033743 7.9863257 0.12114372
-2.567132 0.93914711 0.39504591
-2.5670366 1.0909551 0.39449021
-0.66395783 2.7913299 0.37501228
-0.58810973 2.8298578 0.3064191
-0.20883083 3.0718725 0.29208055
5.1373386 7.8272247 0.12072384
-2.572093 1.2602919 0.39473101
-0.68477798 2.8093042 0.27933824
-0.5974791 2.9993663 0.31360397
-0.4419179 3.0474255 0.30544239
4.8022099 7.8261642 0.19197266
4.8756385 7.8256054 0.19185586
-2.5581903 1.4610246 0.39374614
-2.5332007 1.6670127 0.39255598
3.9304082 7.3037143 0.18326201
4.6778402 7.8132319 0.191953
4.8081207 7.8452902 0.19237834
-2.5343661 1.8244771 0.36866161
-1.1880286 3.0863671 0.31953311
-1.067611 3.0710893 0.34804362
4.1527987 7.6157298 0.18929023
4.3922858 7.8262534 0.19306688
-3.0601692 1.7301382 0.34358999
-2.5338855 2.0819669 0.35350505
-1.4455836 3.0840788 0.33621392
-1.3211834 3.081645 0.32795972
3.5098536 7.4947295 0.19033068
-2.5368676 2.3442066 0.3558239
-1.7751544 3.0773234 0.35807911
-1.6001127 3.0871847 0.34654534
3.7579503 7.9837193 0.19995064
3.9365561 7.9934449 0.19903821
-2.5600133 2.5424819 0.35932693
-2.5134282 2.7069948 0.35812679
-2.0833464 3.0913024 0.33629331
-1.8922188 3.0797906 0.324287
-2.3307986 3.0815544 0.33345985
3.2432966 8.0198011 0.20494787
-2.6584487 2.9443436 0.32415181
-2.5693483 3.0205953 0.31970599
3.1311769 8.0162802 0.20594361
-13.71842 -0.98515177 0.67058736
-13.759816 -0.60380894 0.66532201
-13.749377 -0.33343223 0.66014588
15.486903 -2.6334491 0.42605481
15.486556 -2.3136394 0.41824165
15.476744 -2.0076451 0.4108083
15.485479 -1.8120921 0.40657398
15.472883 -1.5212195 0.39984727
15.484076 -1.2326537 0.39401507
8.0190821 -5.1444497 0.48366177
2.7314065 -9.5682697 0.74021423
6.2189751 -6.4359818 0.58787566
6.3960485 -6.2876215 0.58091402
6.5535574 -6.1022673 0.50587827
2.3921258 -9.5475798 0.74286431
2.8884943 -9.1045809 0.70392632
5.9738798 -6.44767 0.58390349
8.1132374 -4.6364894 0.45919672
2.1862404 -9.453721 0.73872501
2.5009053 -9.1232777 0.70973021
5.521986 -6.4536123 0.57643688
5.7006927 -6.452003 0.57929474
1.9842641 -9.3854294 0.73669004
5.3679547 -6.4500141 0.57385355
1.7830379 -9.3128443 0.73457134
5.084476 -6.3313751 0.56089503
4.6864662 -6.34869 0.55760789
4.842957 -6.3467951 0.55910748
4.5313692 -6.3574977 0.55686605
4.0199099 -5.6288152 0.59884357
4.1153059 -5.6474509 0.60182655
5.9919519 -3.9587538 0.556427
6.0469384 -3.9038999 0.55464631
2.9047272 -6.3475056 0.66500163
3.7527461 -5.6325779 0.59642732
3.8808608 -5.6181903 0.59630442
5.7218037 -3.8594482 0.53513944
5.8629746 -3.8313029 0.4456991
5.9872308 -3.8481884 0.45151958
2.7553575 -6.3363957 0.66465569
2.9615026 -6.0123892 0.57858551
3.4890428 -5.6292243 0.5942117
3.6146951 -5.6314611 0.59515435
5.3701067 -3.9587886 0.61787063
5.6465311 -3.8596444 0.48570046
5.9177999 -3.6188476 0.43304735
2.958693 -5.9823503 0.68097037
3.1970263 -5.6304398 0.59343356
3.3598595 -5.6252723 0.59329563
5.3461885 -3.8175025 0.54406595
8.164587 -1.3398578 0.48364794
3.0070219 -5.6214509 0.59246796
4.9331064 -3.8952448 0.50405395
5.0254622 -3.762574 0.49579629
7.7597656 -1.4404814 0.4609004
1.7076691 -6.3520594 0.67965853
6.1075687 -2.6353743 0.46270579
7.3921008 -1.4424251 0.43708137
1.4075246 -6.3420568 0.70356536
1.5770193 -6.3445415 0.6815784
5.5184927 -2.7387135 0.59013665
5.8598642 -2.5084147 0.5185371
6.0038018 -2.5253518 0.53068858
6.962368 -1.4321678 0.54188758
8.2150116 -0.38829136 0.45890823
1.13814 -6.352129 0.69288737
1.3323264 -6.3389001 0.63127226
5.4037209 -2.538605 0.52457005
6.9408545 -1.4275212 0.45142537
8.1090574 -0.25124219 0.44864956
0.86624002 -6.3478632 0.6443333
4.9392214 -2.6904731 0.46974373
5.2627563 -2.5798085 0.51781368
5.4205871 -2.3915169 0.51306099
8.1285515 -0.072564475 0.44645324
0.60514259 -6.3519607 0.65260631
4.9634428 -2.5403123 0.49182135
5.1172714 -2.5051298 0.46493453
8.0784054 0.091829941 0.44013107
8.066927 0.219991 0.43732926
0.15667808 -6.3516989 0.66785604
0.32365179 -6.3559499 0.66231936
5.8574972 -1.4290793 0.44507936
8.0328131 0.34662187 0.43332645
8.1000729 0.51840776 0.4357844
-0.14588904 -6.3617563 0.6802457
0.0056099892 -6.3583817 0.67407519
5.4620337 -1.4445536 0.47742769
5.6583691 -1.439081 0.53069395
5.6872034 -1.2731831 0.55674255
-0.45794082 -6.3448496 0.69158357
-0.29523826 -6.3521509 0.68541652
5.1306162 -1.5231478 0.51105458
5.2782207 -1.4459124 0.52151853
5.4477777 -1.254267 0.47433713
5.4885387 -1.1344876 0.49218094
7.7701969 0.73068649 0.41157237
-0.662431 -6.3543139 0.64179385
4.7221737 -1.6075356 0.50156951
4.8585553 -1.5749086 0.50156873
7.7754512 0.97258687 0.41057897
7.7709484 1.1336427 0.45970765
7.9854474 1.3030428 0.42386362
-0.97069669 -6.3545818 0.65492111
7.7677422 1.1316668 0.35960582
7.9933147 1.4328766 0.42443645
7.9914184 1.5707924 0.42465255
-1.2931075 -6.3497634 0.66903538
8.0020609 1.7084775 0.42596772
8.0051012 1.8446983 0.42688331
8.2026482 2.0403159 0.49646187
-1.5589273 -6.3465652 0.68125278
8.1811438 2.0322042 0.38442978
8.3127623 2.1767519 0.39266667
-1.8018379 -6.3416519 0.69279319
8.0373726 2.2301483 0.43240878
8.0325642 2.3732941 0.43387437
8.0246239 2.5165834 0.43538666
8.0225668 2.6349599 0.38129744
8.0129328 2.7817857 0.38272834
8.1442738 2.9741144 0.39241347
6.5675368 2.8292229 0.49183497
6.1898441 2.849143 0.46374112
6.3732471 2.8406408 0.47730571
0.78632951 -1.5880451 0.56631434
0.90349162 -1.5907605 0.57567191
5.863833 2.8332152 0.47943619
5.9829102 2.8350136 0.44766572
0.47427678 -1.5866936 0.5796622
0.64455235 -1.5808448 0.57721621
5.6775379 2.8184149 0.46387306
5.6741791 2.9378333 0.47011733
0.3452065 -1.485624 0.57070374
5.6167936 3.0802615 0.47389546
0.051730394 -1.4482733 0.58635861
0.19530165 -1.4598649 0.59278405
5.1595173 3.0785625 0.44070119
5.3635893 3.0941913 0.41757107
-0.23012018 -1.4488701 0.60585231
-0.090044022 -1.4438325 0.55076349
5.0456619 3.2217655 0.44242433
5.1466718 3.1918855 0.44719616
-0.65350699 -1.4768628 0.53991866
-0.50088453 -1.4431541 0.60009652
4.7404823 3.2330558 0.45958498
4.9109826 3.2338574 0.42240113
-0.90589237 -1.4640921 0.60342956
-0.75434113 -1.4591202 0.58031958
-1.2146049 -1.4564675 0.61868161
-1.0370495 -1.4524416 0.59253812
-1.5459619 -1.4600292 0.60033613
-1.3961608 -1.4561814 0.58036029
-1.7699771 -1.4460869 0.62912208
-2.006628 -1.4449391 0.62344575
8.0177774 7.3459339 0.3588101
-2.2326951 -1.4476031 0.61341959
7.9923902 7.6874709 0.36795622
-2.55829 -1.4088444 0.60884243
-2.34867 -1.2002126 0.61476487
-2.4407034 -1.0280993 0.61812925
2.2525103 3.2159147 0.47768667
7.7956223 7.9901853 0.28977421
7.9741235 8.0007858 0.29261214
-2.4713011 -0.76595217 0.61135453
2.0963268 3.2152116 0.47883272
7.5515695 7.9902053 0.36862579
-2.4799476 -0.5731616 0.60558391
-2.4866438 -0.47486317 0.60337287
1.7850598 3.2156985 0.4848637
1.9437565 3.2180388 0.4813697
6.8559885 7.6387348 0.34603974
7.319315 7.9799943 0.36432815
-2.7791247 -0.40840963 0.59621608
1.3825082 3.2186739 0.47264016
1.5305065 3.2153604 0.47143543
6.8167048 7.9463744 0.35539275
-2.7805157 -0.34232435 0.59467125
1.0812126 3.2257314 0.47030291
1.2404538 3.2194796 0.47971261
6.5896139 7.9307528 0.351684
-2.7649364 0.063472793 0.58407533
-2.5704379 0.21717915 0.58732045
0.31555855 2.8121777 0.49850658
0.80341017 3.2262588 0.50726753
0.96206903 3.2270834 0.5081712
6.1315851 7.8202457 0.34218153
6.3471088 7.9534812 0.34931052
-2.5827193 0.39445469 0.61384249
-2.5792069 0.53601003 0.59643567
0.029549003 2.7884388 0.51016396
0.22823417 2.8777375 0.53138745
0.34225738 3.0862296 0.49745595
0.49624181 3.2310369 0.50094491
0.62095022 3.2305934 0.49138305
5.1037102 7.2882953 0.44701898
6.0171156 7.9923916 0.34687787
-2.5796814 0.65516168 0.59602869
-2.5771136 0.79186994 0.59538788
-0.37944722 2.7603455 0.4742322
-0.24445701 2.8172076 0.55744809
-0.056814671 2.8182743 0.56658375
0.038233399 3.0875444 0.46283346
0.39168549 3.2271373 0.50878513
4.7250457 7.2324347 0.30921558
5.0579729 7.3972044 0.38433495
5.5998802 7.9822993 0.34257993
5.8091316 7.9947691 0.34488401
-2.5727563 0.94411969 0.59514856
-2.5740824 1.0965799 0.5960809
-0.64485002 2.7761302 0.50254625
-0.47767615 2.8052716 0.54153466
-0.30252886 2.8851528 0.4765819
-0.19199729 3.0555854 0.44836879
-0.025227308 3.0929689 0.46875542
4.5905046 7.2631059 0.38066712
5.1446762 7.8406835 0.33413383
-2.5812125 1.2539622 0.58807617
-0.5995419 3.0064871 0.44793084
-0.45365214 3.0661428 0.43921486
4.0159292 7.1311803 0.30348977
4.3333507 7.3468871 0.44201133
-2.5617418 1.4656128 0.55747074
-2.5318551 1.6701988 0.55703706
3.9305952 7.2937675 0.43686169
4.0059423 7.3278165 0.37535542
4.5805793 7.8352909 0.33147794
-2.5309992 1.8168715 0.55957383
-1.1838789 3.0883634 0.5068295
-1.070169 3.0794694 0.53238577
4.3953829 7.8316097 0.33096579
-3.0805249 1.7417746 0.57338327
-2.5282221 2.0845172 0.56506169
-1.4407234 3.0857873 0.53153169
-1.3252804 3.0912807 0.52052438
3.510601 7.4906621 0.31869277
3.6870871 7.6574869 0.32471195
-2.534132 2.3480151 0.57252932
-1.7774551 3.0839682 0.52352524
-1.5998743 3.0929801 0.54766124
3.3115139 7.4166799 0.3166818
3.9371006 7.9891238 0.33723831
-2.5575414 2.5467317 0.58081394
-2.5064578 2.7088077 0.58080328
-2.073154 3.089911 0.5521003
-1.8984077 3.090625 0.53532606
-2.3690538 3.0875864 0.5534113
3.2443919 8.0154257 0.34127584
-2.6603346 2.9516654 0.55796993
-2.5754399 3.0307536 0.55273157
3.1323624 8.0119028 0.34193128
3.8664603 10.540849 0.25898191
15.479251 -2.6272628 0.65929228
15.478887 -2.3077366 0.65046728
15.478938 -2.0035393 0.64247155
15.477792 -1.8066356 0.63745147
15.494951 -1.5195403 0.63121158
15.486311 -1.2286618 0.62415427
2.9139407 -9.3394213 0.88279897
6.2191477 -6.4281173 0.78600925
6.3961053 -6.2798944 0.77845967
2.7022841 -9.1474752 0.86718088
5.9794316 -6.4484744 0.78001279
1.9864427 -9.5911322 0.91725737
2.1864374 -9.3307304 0.89030391
2.5049658 -9.1500483 0.86956555
5.5274391 -6.4550157 0.76701701
5.7086468 -6.4575019 0.77247787
1.7788876 -9.5982227 0.9213748
2.378444 -9.1459112 0.87072915
5.394227 -6.3912473 0.84050816
5.0924854 -6.3360262 0.80507129
4.6960125 -6.3585978 0.79740304
4.8527527 -6.3563914 0.80092269
4.5388241 -6.3630662 0.79438704
6.1314244 -4.4693103 0.71118563
4.0344849 -5.6572928 0.8108747
4.1130896 -5.6290922 0.80900246
6.1164465 -3.8802266 0.75236881
2.9079242 -6.3488646 0.83227992
3.7616239 -5.6475945 0.80382282
3.8963387 -5.6518211 0.80709362
5.865633 -3.9131725 0.73739928
6.7744441 -3.0706067 0.72911894
2.6944995 -6.3545718 0.83354515
3.4323645 -5.6428895 0.7980935
3.624526 -5.6515083 0.80198056
5.4140205 -3.9204729 0.70694965
5.5711946 -3.8491845 0.70956725
6.5042171 -2.9353962 0.78668487
2.2691798 -6.3756843 0.83947307
2.4264853 -6.3721943 0.83749443
2.9554782 -5.9437528 0.8341189
3.203738 -5.6440029 0.79583973
5.1858768 -3.9002545 0.77796996
5.2945251 -3.7786968 0.77067339
5.7580252 -3.383333 0.76176721
5.821774 -3.2239757 0.74955958
6.4294271 -2.7973866 0.76562065
8.1372261 -1.3524653 0.67962599
1.995286 -6.3607912 0.84133983
2.1321101 -6.3696885 0.8404327
3.0136018 -5.6377439 0.79367417
5.1756611 -3.6356013 0.82827622
5.3341756 -3.5105906 0.78313994
5.449677 -3.3540537 0.73124206
5.8762727 -3.1294596 0.74427563
5.8826637 -3.0279562 0.73393595
7.7769618 -1.4407461 0.66636211
1.7100644 -6.3535962 0.84568554
1.8571453 -6.3588824 0.84347099
5.2601051 -3.4310575 0.76622331
5.312377 -3.2152355 0.78409165
7.4197779 -1.446152 0.63162053
1.3901895 -6.3501544 0.85280937
1.5786753 -6.3559709 0.84886909
5.1429729 -3.0871091 0.82857078
5.3106942 -3.0332627 0.76038766
5.637351 -2.7126427 0.7562601
6.9726143 -1.4324025 0.67673516
8.2169857 -0.38461208 0.67211491
1.1405047 -6.351016 0.85999244
5.1510348 -3.0095508 0.81835407
5.2431145 -2.8421729 0.76725334
5.36518 -2.672148 0.74673384
5.6308336 -2.3466022 0.79093623
5.7516956 -2.3540292 0.7688539
8.0815601 -0.24608919 0.65489846
0.86712456 -6.3549175 0.81317562
5.1769047 -2.500746 0.78760546
5.414937 -2.4217434 0.69812256
5.6154728 -2.3384008 0.71215087
6.615231 -1.4297884 0.67833394
8.0935326 -0.068149261 0.65227073
0.60724819 -6.351511 0.82196784
8.0659084 0.095271707 0.64645207
8.0643997 0.22333369 0.64441293
0.15534365 -6.362855 0.8415283
0.32517385 -6.3577166 0.83373123
8.0403194 0.35027763 0.64032078
8.0974216 0.52148575 0.64447844
-0.14613605 -6.3677673 0.85580689
0.0054993629 -6.3645816 0.84836972
5.4777851 -1.4476027 0.64329302
5.6307135 -1.4449639 0.71576804
5.7523293 -1.3234648 0.68332618
-0.46201229 -6.3597527 0.87072176
-0.29562378 -6.3579855 0.86207551
5.137598 -1.5222814 0.69582552
5.2886009 -1.4461854 0.71211034
5.4726601 -1.2697315 0.79115927
5.6126661 -1.1965803 0.6756019
7.7733984 0.73402774 0.61024565
-0.66541052 -6.3664875 0.88230604
4.7224422 -1.6017631 0.72535622
4.8855391 -1.5739861 0.7038306
7.7736411 0.97510302 0.61002547
7.772469 1.1353152 0.56002361
8.0024242 1.3093574 0.63419932
-0.97305226 -6.363842 0.89928836
7.7722983 1.1366833 0.66052455
8.0004225 1.4372655 0.63505465
7.9984231 1.5752569 0.63628417
-1.3848453 -6.3655872 0.92434227
-1.2133968 -6.3643556 0.91362214
8.0137253 1.7143118 0.63956594
8.0118332 1.8492838 0.6413874
8.2033024 2.0418355 0.60760015
-1.565788 -6.3611107 0.87193036
8.2821922 2.1685433 0.56013244
-1.9044929 -6.371232 0.89391756
-1.7213047 -6.3528304 0.88064873
8.0441322 2.2343976 0.59708786
8.0438652 2.379385 0.60009271
8.0311584 2.5209665 0.60226303
8.0252838 2.6378086 0.54881656
8.0155649 2.7846105 0.55151677
8.1465693 2.9768298 0.56636405
8.096961 3.1024311 0.56595254
7.7619367 3.123971 0.59745562
7.5442262 3.1079369 0.63346082
7.2721944 3.1048748 0.60967928
6.4576297 2.7636395 0.56976342
6.550849 2.820503 0.67238015
6.2343793 2.8159604 0.59529299
0.77581751 -1.5872349 0.78233361
0.90130246 -1.5955637 0.76469797
5.7680044 2.765729 0.62725633
5.9028578 2.7807746 0.64297467
5.9844351 2.8365619 0.53077799
0.46685398 -1.5895059 0.78195322
0.63933015 -1.5823724 0.77176738
5.6711426 2.8144476 0.62042207
5.6716166 2.9365695 0.62971061
0.33927417 -1.4857316 0.77664495
5.6199303 3.0835118 0.63594645
0.061477304 -1.4491364 0.78151554
0.19839239 -1.4565676 0.78671414
5.1591759 3.0785911 0.62810516
5.3531389 3.098372 0.63388085
-0.21737051 -1.4481159 0.79953194
-0.093095541 -1.4451835 0.71363902
5.0476975 3.2239797 0.63095737
5.1508455 3.1962593 0.63840151
-0.50478625 -1.4441469 0.79561013
4.7851434 3.2370679 0.62228489
4.9560709 3.2382023 0.62378216
-0.89506006 -1.456637 0.80415457
-0.77736092 -1.4543822 0.80249798
-1.2163475 -1.4555556 0.80701756
-1.0414281 -1.4527847 0.80359441
-1.545377 -1.4577579 0.80295128
-1.3966455 -1.4545093 0.77595758
-1.7617624 -1.4405532 0.84056717
-2.0043654 -1.4420671 0.80959666
8.0135059 7.3404279 0.51881266
-2.2752199 -1.425393 0.80060625
7.9882145 7.6816521 0.53219575
-2.5591402 -1.4066578 0.81664562
-2.3826828 -1.3057845 0.78326577
-2.3612056 -1.2015014 0.81361479
-2.4568472 -1.0296606 0.81950068
2.2550623 3.2182245 0.64297533
7.8023744 7.9982491 0.54027438
7.9838758 8.0127087 0.54616946
-2.4759331 -0.86203933 0.85387331
-2.4766936 -0.74475992 0.80070996
2.0994985 3.2225597 0.67259008
2.2572112 3.2249684 0.7561819
7.5536189 7.9922147 0.53304619
-2.4897799 -0.57174611 0.80347949
-2.4981861 -0.47337639 0.80125046
1.7876995 3.2241728 0.67935795
1.9467367 3.2237298 0.67496276
6.9230461 7.7420154 0.50520986
7.3214312 7.9820833 0.52637559
-2.7835922 -0.40571061 0.80502385
1.3838515 3.2307484 0.67040241
1.5388759 3.2284467 0.69028813
6.8189445 7.9486485 0.51235551
-2.7834067 -0.33938602 0.80284852
1.0879644 3.2317595 0.6902858
1.240841 3.2340801 0.6800018
6.6019754 7.9503574 0.50749302
-2.779572 0.066880114 0.79265738
-2.5663533 0.20157582 0.79623419
0.30633616 2.8354781 0.70017499
0.79056048 3.2373815 0.69672906
0.96857226 3.2361822 0.70078462
6.1292658 7.8140163 0.49099025
6.3494291 7.9559088 0.50237495
-2.587585 0.38776326 0.79800773
-2.5922313 0.52067488 0.79811251
0.033003569 2.8415499 0.69844586
0.2203089 2.877768 0.71848786
0.34472084 3.1013119 0.69665289
0.50009251 3.2320721 0.68332171
0.6653043 3.2356162 0.71317244
5.1053514 7.289485 0.58081156
6.0194697 7.9949021 0.49790832
-2.5912533 0.67993176 0.78990304
-2.5813684 0.7971589 0.83725184
-0.24354029 2.8215568 0.71278292
-0.032315731 2.8357453 0.70862693
0.39504087 3.229347 0.69372874
4.9239178 7.2894864 0.57723075
5.6050158 7.9896688 0.56474876
5.807178 7.9883461 0.4938595
-2.5817418 0.94981545 0.79828787
-2.5860238 1.1033494 0.80101293
-0.62821126 2.7655833 0.69599205
-0.47440171 2.8126171 0.73181933
4.6199999 7.3058729 0.57315254
-2.588151 1.2870213 0.78723073
4.3198977 7.3007808 0.56861025
-2.5598702 1.4694723 0.76333088
-2.5282202 1.6735338 0.76410097
3.9324329 7.2953148 0.56421888
4.0668001 7.2996459 0.56571192
-2.5255656 1.8195313 0.76846087
-1.1823916 3.0941346 0.73451573
-1.0689523 3.0842419 0.71859002
-2.5237145 2.0735478 0.7669729
-1.4411247 3.0921474 0.72944146
-1.3138106 3.0868738 0.71246773
-3.1029735 1.7541798 0.80723816
-2.535428 2.3529618 0.7477898
-1.7763643 3.0891831 0.73196977
-1.5984695 3.0978587 0.75060326
3.9379885 7.9829316 0.54469985
-2.5496092 2.5469382 0.75850445
-2.5139832 2.6960914 0.74594623
-2.0780544 3.0984826 0.72777319
-1.8994713 3.0975807 0.74845934
3.6105399 7.9736528 0.47462532
3.7155585 7.9964089 0.56788588
-2.5410132 2.8415174 0.771671
-2.5366001 3.0106854 0.7340703
-2.3149695 3.0908725 0.74164861
-2.6593442 2.9585304 0.84132755
-2.5828991 3.0431349 0.83586597
-2.4516201 3.0987568 0.82149404
3.8702028 10.536163 0.61991376
-13.655766 -0.97672594 0.93489265
-13.657174 -0.59508729 0.9276976
-13.666656 -0.32691598 0.92335016
14.958858 -2.5183189 0.8596949
14.966094 -2.2125754 0.85071421
15.003753 -1.9258456 0.84456915
15.011497 -1.7371768 0.83978802
15.02739 -1.4600227 0.83339608
15.057438 -1.1830175 0.82828152
8.0656729 -6.3358488 1.0054812
8.0416126 -6.0279999 0.97462654
8.0256157 -5.8473983 0.9566415
6.9632854 -6.3106861 0.94193834
7.1133351 -6.3193579 0.95059675
2.9305491 -9.4817114 1.0602578
6.9195495 -6.0718594 1.0507096
6.4027209 -6.2819128 0.97821438
6.598176 -6.1427159 1.0393628
6.7608414 -6.0450349 1.0376874
2.1942081 -9.5930119 1.0800763
6.0118589 -6.3451929 0.9663958
6.1676431 -6.3405809 0.9732433
6.4990687 -6.0135059 0.88773948
1.9890242 -9.5945473 1.0833151
2.3816028 -9.1600008 1.0304333
2.5083559 -9.1641111 1.0294348
2.7015038 -9.1020155 1.0207821
5.650403 -6.3491664 0.88710362
5.833539 -6.3488669 0.9587149
1.7815661 -9.5916824 1.0865157
5.4056759 -6.3570247 1.004536
5.6304178 -6.3083458 1.0083568
5.1006165 -6.343658 0.99026698
4.6988096 -6.3555331 0.97730863
4.8595228 -6.362205 0.98368746
4.5433135 -6.3609838 1.0331328
4.0418386 -5.6684232 0.97067171
4.1137633 -5.6215982 0.96591443
2.9118533 -6.3552456 1.0016394
3.5535731 -5.840457 1.0910743
3.7698941 -5.6639714 0.96204871
3.9065351 -5.6726093 0.96716875
2.6977444 -6.3561277 1.0016599
3.0693231 -5.9249454 1.0968922
3.4402776 -5.6622705 0.95437509
3.6310425 -5.6633868 0.95852131
2.2715163 -6.344327 1.0581063
2.4279242 -6.3491201 1.0017928
2.9563613 -5.9310656 0.99064976
3.2097063 -5.6589446 0.95010352
5.0813055 -3.8773329 0.85448599
8.1739216 -1.3121637 0.826464
1.997907 -6.3427153 1.0057415
2.178848 -6.3283329 0.98248202
3.0203915 -5.6602168 0.94810903
4.7373028 -3.9423568 1.0075897
4.878233 -3.8895814 0.96848953
5.0441384 -3.7720485 0.8785525
7.8112264 -1.4454325 0.87690514
1.712249 -6.3602314 1.0138135
1.8595449 -6.3655252 1.0115957
4.8400478 -3.7502322 0.98351139
4.9274492 -3.6039333 0.93913901
5.0590773 -3.4964352 0.88069797
7.4313865 -1.4453003 0.82709742
1.4103203 -6.3579822 1.0024043
1.5809965 -6.3576355 1.0164527
4.7881093 -3.5190408 1.018725
4.9571242 -3.3725216 0.97156811
5.0817719 -3.2559788 0.87272757
5.4310322 -2.8813663 0.83291692
6.9893289 -1.4345721 0.81387836
7.0990963 -1.465872 0.92370844
8.2238054 -0.38223141 0.8336367
1.1399465 -6.3657174 0.97423297
1.2862524 -6.207818 1.0570165
4.764945 -3.1448839 1.0229999
4.9446568 -3.0619471 0.9295271
5.0581102 -2.9014986 0.86770076
6.676538 -1.444213 0.94304013
8.0570326 -0.24110365 0.86102712
0.8691721 -6.3595457 1.0396812
1.1007402 -6.2336907 1.06747
4.8202534 -2.9465957 0.99285716
4.9319711 -2.7963293 0.9371962
5.0873566 -2.6583662 0.85851902
6.3706951 -1.4341803 0.93115789
6.633812 -1.4321643 0.84955937
8.0664768 -0.063854925 0.85826331
0.3988018 -6.3663731 1.1191065
0.60694253 -6.365519 1.0516074
4.7569637 -2.8169994 1.0314436
4.8290339 -2.6459465 0.99180835
4.9489903 -2.5132642 0.93401372
5.0881729 -2.4685607 0.87792003
6.1440344 -1.4337788 0.92977214
8.0513363 0.098717958 0.85320079
8.0498409 0.2264016 0.85108358
0.15574372 -6.3724184 1.1329749
0.31634927 -6.3091106 1.0383528
5.9051142 -1.4393876 0.81260115
8.0357533 0.35341483 0.84766793
8.1000118 0.52494037 0.8550874
-0.14456725 -6.3719287 1.1504761
0.0042341948 -6.3785114 1.1425644
0.21780312 -6.1514049 0.98257053
5.5667849 -1.4357638 0.89301276
-0.38068962 -6.3718452 1.165556
-0.12652707 -6.0937085 0.99326921
0.088538647 -6.1023369 0.9825173
4.9715328 -1.5833535 0.95009047
5.1416569 -1.5198673 0.88395792
5.3074608 -1.4502656 0.90963119
5.5152082 -1.2847282 0.86722916
7.7785335 0.72048271 0.82759011
7.7830391 0.78951883 0.76112932
-0.7151947 -6.3656588 1.066022
-0.57826447 -6.2832713 1.0461843
-0.39389491 -6.1860013 1.0215896
4.7212467 -1.5956964 0.92579496
4.8541031 -1.5801579 0.90530205
7.7772951 0.97865844 0.81149346
7.7783928 1.1399131 0.81289577
8.007391 1.3132404 0.84566599
-0.97840691 -6.3782988 1.0854133
8.0114651 1.5118754 0.84940857
-1.3929691 -6.3834953 1.1158334
-1.221209 -6.3827276 1.1030924
8.0156384 1.716844 0.80028194
8.0088911 1.8503801 0.80241781
8.2086239 2.0461628 0.83158219
-1.5699692 -6.370842 1.0638547
8.1294079 2.0697091 0.76676315
8.2197857 2.149714 0.72311461
-1.9009364 -6.3665385 1.0230236
-1.7791185 -6.355792 1.0993592
8.0417747 2.2354031 0.76184541
8.050703 2.3837914 0.76725119
8.028656 2.521698 0.76930112
8.0276031 2.6410656 0.77338344
8.0268002 2.7918708 0.77890098
8.107749 2.9606826 0.79392272
8.0851803 3.0986805 0.79757035
7.7596455 3.1241832 0.76475173
7.5329175 3.1030881 0.79456121
7.2771511 3.1093502 0.81937063
6.5555978 2.8910027 0.81584471
6.2906957 2.7914762 0.90694267
6.2413301 2.8860307 0.90805519
6.5582347 3.0953526 0.87856257
6.561626 3.0969913 0.78437167
0.76979995 -1.591484 0.99446094
0.89475727 -1.6024702 0.96288449
5.7750578 2.7718918 0.82980961
5.8943338 2.8023973 0.82211709
0.47453928 -1.5922695 0.98056793
0.63404989 -1.5877131 0.96418506
5.6746387 2.8180704 0.81998265
5.6837702 2.9469664 0.83452529
0.33673692 -1.4963601 0.98365474
5.6112809 3.0902467 0.82314515
0.059439301 -1.4544485 0.98186785
0.19290054 -1.4606428 0.96316308
5.1652751 3.0847461 0.81892949
5.38416 3.100908 0.82641608
-0.19826961 -1.453979 0.98020244
5.0546808 3.2313068 0.82326573
5.1518536 3.1975005 0.83130509
-0.62717271 -1.4579177 1.000633
-0.47441697 -1.4514147 1.0010585
4.7782278 3.2422793 0.8278864
4.9561534 3.2382932 0.84990895
-0.89675212 -1.4560269 0.98315525
-0.76013708 -1.4589396 1.0075581
-1.2148075 -1.4530395 0.99895209
-1.0431733 -1.4517518 1.0197986
-1.5468593 -1.456341 1.0101645
-1.399509 -1.4538691 0.9762246
-1.7723613 -1.442944 1.0238521
-1.999228 -1.4376668 1.0357693
7.9947829 7.317461 0.67729604
-2.236558 -1.4446239 1.0076324
7.9761453 7.6658044 0.69560093
-2.5594239 -1.4042344 1.0269258
-2.4396887 -1.2215425 1.0726265
-2.3929563 -1.2093501 0.93970942
-2.4795713 -1.0328372 1.0268854
7.802671 7.9978809 0.70742875
7.9900637 8.0202379 0.71604598
-2.4841623 -0.86159223 1.017243
-2.4898071 -0.7404471 0.99153173
2.0847483 3.2351661 0.87330133
2.233259 3.236357 0.87316197
7.5540628 7.99193 0.69766027
-2.5051327 -0.60919172 1.0246564
-2.5037103 -0.47109461 1.0020207
1.7900286 3.2387891 0.88106263
1.9496948 3.2356725 0.87542087
6.9155221 7.7285223 0.73686081
7.3164363 7.9736071 0.68792719
-2.8009481 -0.40490907 0.97656274
-2.5904784 -0.32381383 1.0638107
1.385169 3.2435853 0.87479591
1.5405278 3.2425511 0.89384192
6.6583486 7.6848717 0.6480279
-2.7869253 -0.2856442 0.96994847
-2.6118636 -0.14587647 1.040908
-2.6187744 -0.028932907 1.0530959
1.1021132 3.2366996 0.86622995
1.2431984 3.2411404 0.88510305
6.2444453 7.763906 0.64034039
6.4821281 7.7437081 0.64613134
6.6025386 7.9481993 0.8182472
-2.7918425 -0.027545609 0.96423346
-2.5907259 0.12840129 1.0198897
-2.591908 0.24490672 1.0022489
0.21791446 2.750787 0.89988488
0.28005719 2.784652 0.86739087
0.80265188 3.2375231 0.89669108
0.97787118 3.2472823 0.88062131
6.1327953 7.8178058 0.71556193
6.359921 7.9713492 0.81079566
-2.5910373 0.39157569 1.0010039
-2.5906672 0.52422225 1.0007544
0.088148236 2.7529621 0.89309764
0.22291923 2.8792806 0.83661664
0.33194864 3.1080472 0.90352601
0.50514722 3.2439086 0.88930613
0.67315674 3.2417021 0.91271561
5.1158538 7.3099232 0.78427076
6.0229311 7.998517 0.72527289
-2.5884237 0.70316887 1.0013362
-0.35311604 2.7458513 0.90852368
-0.20707059 2.8125739 0.87839806
-0.14215684 2.8811026 0.89579135
0.17601347 3.0552492 0.94053185
0.29640841 3.1151841 0.93518502
0.39405191 3.2402632 0.88452649
4.9359617 7.3148232 0.77952355
5.6080627 7.9924326 0.78745514
5.8128624 7.9966145 0.71903467
-2.5911164 1.0058206 0.96496153
-0.59525824 2.7394729 0.91909921
-0.47268915 2.7283871 0.92766678
-0.34230757 2.8910048 0.96439445
-0.19865417 2.9549103 0.91783077
4.6054564 7.3352304 0.77267593
4.7604437 7.3141799 0.77463228
-2.5899191 1.2767423 0.97144949
4.3296294 7.3247662 0.76562822
-2.5745845 1.5147626 0.99074519
-2.5259333 1.6773968 0.97381657
3.9289246 7.2742009 0.75366628
4.0765505 7.326395 0.76109868
-2.8136835 1.6640426 0.98426878
-2.5130053 1.8195033 0.97815788
-1.1810405 3.0989294 0.92714775
-1.0758331 3.0982685 0.94816232
-2.9975133 1.7225593 0.92847013
-2.5197082 2.1062512 0.97634548
-1.4444077 3.1011291 0.93120676
-1.3176031 3.09639 0.91005397
-2.5311456 2.3434768 0.94979602
-1.775048 3.0942929 0.942949
-1.6015527 3.1053586 0.91610795
3.9377618 7.972178 0.75203329
-2.5492845 2.5513086 0.93891603
-2.5258055 2.6651618 0.94245815
-2.0776091 3.1044188 0.94926018
-1.8949592 3.1002958 0.96314049
3.6931286 7.9970155 0.75218898
-2.5083513 2.7835467 0.94777668
-2.5556841 2.8994186 1.0105004
-2.3480706 3.0972548 0.94586778
3.2455349 7.9886007 0.74956256
3.4189715 7.9899492 0.75008297
-2.6458201 2.9526834 0.93415433
-2.5870552 3.0496595 0.97970986
2.9637258 7.9772687 0.74873418
3.133965 7.985076 0.74919611
2.7933259 7.9759121 0.74925274
3.8651247 10.494927 0.79786575
-13.658346 -0.97269869 1.2024654
-13.679712 -0.59175402 1.1964134
-13.659303 -0.32236439 1.1898406
14.39666 -2.4013667 1.0390643
14.440757 -2.1155391 1.0326645
14.446927 -1.8358979 1.0242097
14.47326 -1.6580009 1.0208149
14.477787 -1.3911318 1.0135182
14.486712 -1.1239744 1.007064
6.9949818 -6.3411493 1.227415
6.5491343 -6.3502445 1.1975524
6.7544117 -6.3489599 1.2113919
6.1839943 -6.3576541 1.174935
6.3730288 -6.3633389 1.1877223
6.0174713 -6.3459764 1.1631172
5.6545773 -6.3423615 1.2061199
5.8442507 -6.3584838 1.1546553
5.4103079 -6.3570123 1.194201
5.1074462 -6.3486872 1.1769967
4.7034488 -6.3567843 1.1593076
4.8621716 -6.358644 1.1666893
4.552968 -6.3752556 1.216422
4.1358104 -6.3575573 1.1972059
4.2922716 -6.3668885 1.2044557
3.8303475 -6.3576999 1.1876749
3.9846082 -6.3536663 1.1915543
4.2573071 -6.0024753 1.1416277
3.6604776 -6.2396579 1.2773433
3.1505308 -6.3699174 1.2910284
3.2923894 -6.3735929 1.2941431
3.4346895 -6.3641462 1.2952724
2.9726772 -6.3638229 1.2305061
3.4185176 -5.9781322 1.14852
2.7029757 -6.3680544 1.2297349
3.2171848 -6.0077391 1.1134628
2.2745123 -6.3500614 1.2278963
2.4314921 -6.3490314 1.2265302
6.0143938 -3.1255319 1.0258679
8.1625957 -1.3283556 1.0266597
8.2341843 -1.1576586 1.083603
2.001406 -6.3353696 1.2284107
2.1381488 -6.3588953 1.2309748
7.8335023 -1.446892 1.0896761
8.2418184 -1.0116222 1.0775181
8.2548981 -0.87309402 1.0732334
1.7152724 -6.3674526 1.2402104
1.8634555 -6.343308 1.2322949
4.5571842 -3.888695 1.1207987
4.7062545 -3.8123012 1.0653509
7.4743681 -1.4531718 1.0309547
8.2485619 -0.78114575 1.0682752
8.2974319 -0.58545804 1.0686238
1.3940017 -6.3686571 1.2494056
1.5838003 -6.3648167 1.2430202
4.5752468 -3.6443813 1.1265382
4.6597228 -3.5009396 1.080265
7.071619 -1.4545528 1.057778
8.0883808 -0.56160396 1.1409647
8.2161121 -0.37875655 0.99447638
1.1437246 -6.366693 1.2579173
4.5236421 -3.4684951 1.1356232
4.6546221 -3.3348773 1.0846866
4.6391125 -3.2007494 1.0930007
6.6907568 -1.4459856 1.0761586
8.0558596 -0.27981132 1.0904768
0.87007165 -6.3709154 1.2702055
1.5031488 -5.7764955 1.2910922
4.5383444 -3.2181072 1.1838009
4.6081481 -3.049228 1.1153758
4.7240887 -2.900059 1.0430384
6.4094434 -1.4439211 1.1042405
8.0447731 -0.059741609 1.0652679
0.39848387 -6.375689 1.2953351
0.60887539 -6.3692508 1.2826396
1.5353981 -5.4147711 1.3112478
4.5569792 -2.8738122 1.130726
4.6353607 -2.7612536 1.0950245
4.7270603 -2.6197286 1.0575045
6.1836329 -1.444658 1.0969101
8.0395737 0.10218905 1.0612741
8.0380831 0.22955561 1.0591621
0.15421832 -6.382185 1.2520136
0.25394511 -6.3693066 1.2438732
1.4514164 -5.2989874 1.2876198
4.5468845 -2.6263485 1.1413711
4.6492043 -2.5117037 1.0890511
5.8973627 -1.4304191 1.0707936
8.0339031 0.35670257 1.0570959
8.0858631 0.50533587 1.0473937
-0.14959741 -6.3906331 1.2728199
0.0054193735 -6.3786678 1.2606473
0.31210613 -6.1594996 1.3178836
1.5334591 -4.9387765 1.2921143
5.5942059 -1.4514837 1.0972744
8.0451136 0.589544 1.1107945
-0.37948012 -6.3716426 1.2856458
1.5234176 -4.6196237 1.2987729
4.984776 -1.5867361 1.1112189
5.1500349 -1.5126262 1.0906092
5.3252172 -1.4536731 1.1136429
7.773109 0.7224161 0.99477303
7.7868652 0.79450393 1.0652061
-0.66521907 -6.3737459 1.2463189
1.4324929 -4.5604591 1.2870955
1.5531207 -4.3394608 1.3041285
4.5895338 -1.7258552 1.2158988
4.7012987 -1.6101662 1.1316041
4.8437281 -1.5842927 1.1356069
7.7765169 0.98138177 1.0143059
7.7810054 1.1425189 0.96599191
8.0187397 1.317741 1.0067989
-0.94428587 -6.3763614 1.2473925
1.4597121 -4.34796 1.3109061
4.1565838 -1.7606068 1.2133743
4.290803 -1.723186 1.2144629
4.421011 -1.6855135 1.2154537
4.5312495 -1.5437467 1.2150626
7.7642765 1.1408596 1.0655278
8.0201702 1.5160786 1.0113623
-1.3870122 -6.3746352 1.3047045
-1.2206814 -6.3835015 1.2287086
-0.92803288 -6.0758095 1.2797315
4.0246024 -1.7213784 1.2170283
4.1970463 -1.611199 1.2163508
4.3468904 -1.4986271 1.2156445
8.0178585 1.7194746 0.96231967
8.020483 1.8557824 0.96677452
8.2146025 2.0500586 1.0014585
-1.7226946 -6.3591886 1.2674675
-1.5687268 -6.3715401 1.3203486
-0.9470365 -5.836617 1.2426132
3.6323795 -1.7615371 1.2167704
3.763602 -1.6944748 1.2149961
3.8966231 -1.5776292 1.2145792
4.0348759 -1.4962879 1.215122
8.0677471 2.102246 0.98207945
-1.900599 -6.3683491 1.2846366
-0.82758379 -5.3117442 1.2547121
3.2915101 -1.7489464 1.2119625
3.4589591 -1.7014196 1.215947
3.6175504 -1.5620213 1.2143948
3.7443588 -1.4831258 1.2133313
8.0373592 2.2363031 0.98269325
8.0368528 2.3809235 0.98864824
-0.95029902 -5.2565308 1.2574664
3.0031443 -1.7403665 1.216325
3.1720634 -1.6828587 1.2190882
3.3314118 -1.5379053 1.2194806
3.4923434 -1.4793093 1.2187922
8.0331497 2.5258658 0.9946484
8.0319033 2.6451864 1.0002441
-0.9810524 -5.0803189 1.2830132
2.5819035 -1.8198084 1.2300944
2.7367048 -1.7522987 1.2182117
2.8950589 -1.6620538 1.2237453
3.0504498 -1.5285435 1.2188668
3.1903667 -1.4941647 1.2240622
8.0398626 2.7999799 1.0092448
8.1011496 2.9592066 0.96777821
-0.87982678 -4.6851244 1.2504401
2.3125515 -1.7723532 1.2149802
2.4459302 -1.733011 1.2154477
2.6169007 -1.6422434 1.2210017
2.7549992 -1.5219972 1.2186713
2.8843343 -1.4696579 1.2231562
8.08745 3.1013896 0.97356325
2.0351126 -1.7778774 1.2089616
2.1748445 -1.7298784 1.2143441
2.333786 -1.6301125 1.2212335
2.4682443 -1.5159026 1.2215652
2.6166136 -1.4718908 1.2381878
7.750948 3.1214893 0.98820311
1.7019992 -1.8078648 1.2265635
1.8916037 -1.7197504 1.2110283
2.0506659 -1.6012387 1.2132678
2.2042825 -1.5025133 1.2151588
7.5436168 3.110287 0.95990711
1.4560838 -1.7722726 1.2091483
1.6153107 -1.7022982 1.2065592
1.768301 -1.5833025 1.2142447
1.9151874 -1.4966854 1.2110645
7.2715182 3.1077545 1.0293992
1.1717534 -1.7944305 1.2144928
1.3243028 -1.6940904 1.2056386
1.4810503 -1.5561496 1.2090423
1.639976 -1.4820325 1.2185832
6.7184792 2.9236813 0.98272049
0.79794323 -1.9191692 1.2650036
0.96530116 -1.7661865 1.1965095
1.0618701 -1.661743 1.198621
1.2077364 -1.5293478 1.2102276
1.3595339 -1.46804 1.2156661
6.5801353 3.1110895 1.0746753
0.75860631 -1.5868726 1.142593
0.91065168 -1.5500705 1.1747764
1.075299 -1.459815 1.2072498
6.0873494 2.9104135 0.97492927
0.46842206 -1.5940007 1.1360326
0.64105785 -1.5221577 1.1775013
0.77432013 -1.4567988 1.2266748
5.8711834 3.0938127 1.0477706
6.0746717 3.1174746 1.0848091
0.35046077 -1.4869393 1.1722634
0.50215375 -1.458909 1.2062454
5.6670256 3.1103423 1.0332323
0.045298815 -1.4555122 1.1811583
0.1997869 -1.4541069 1.1585031
5.1695471 3.0891721 1.0132619
5.3575878 3.1033769 1.0303969
-0.20921397 -1.4540563 1.1835881
5.0782261 3.222259 0.99984181
5.1566401 3.2025383 1.068364
-0.62665057 -1.4560752 1.2033728
-0.48821568 -1.4483926 1.1972237
4.7686176 3.2444744 1.0357919
4.9575906 3.2398326 1.0421022
-0.89893079 -1.4553646 1.1990354
-0.75740695 -1.4559884 1.18542
-1.2153795 -1.451481 1.1966137
-1.0454826 -1.4512203 1.2115732
-1.5498006 -1.4554986 1.2233144
-1.3954272 -1.4500537 1.1795664
-1.0281715 -1.0646659 1.2731097
-0.87871027 -0.97902024 1.267679
-1.7747581 -1.441983 1.2095088
-0.99906468 -0.79168797 1.2877506
-0.87955332 -0.62424695 1.2806643
-2.0001245 -1.4359186 1.2294449
-0.97563887 -0.5735749 1.2733929
-0.88789892 -0.45540518 1.266826
3.2329154 3.1886163 1.1554495
3.4043887 3.3199384 1.1512026
3.6153417 3.4168046 1.1367961
7.9760036 7.2942557 0.91524082
-2.244709 -1.4453076 1.211711
-0.94168997 -0.27186164 1.2744915
2.7937779 3.1268828 1.1537755
2.9107051 3.0995102 1.1541809
3.1233664 3.2511654 1.1525484
3.206522 3.3797705 1.1473666
7.962369 7.6477923 0.85847574
-2.5422893 -1.4118724 1.1804173
-2.4986486 -1.2869754 1.2593353
-0.97751522 0.083937988 1.2740375
2.6426013 3.1878822 1.1493127
2.8322134 3.2896209 1.1506939
2.9392214 3.4282582 1.139146
-2.5052643 -1.1345919 1.2480092
-2.5029111 -0.98705697 1.236142
2.3862538 3.1759412 1.149737
2.5003109 3.320338 1.1426432
7.8071718 8.003252 0.87558508
7.988503 8.0174866 0.88554239
-2.5015116 -0.86245805 1.2270132
-2.5062046 -0.76577741 1.221916
-0.95172715 0.49166799 1.2667979
1.923247 3.1613963 1.1437247
2.0847445 3.2239265 1.0805477
2.2455463 3.258384 1.064338
7.5586171 7.9975038 0.86328036
-2.5146008 -0.61746538 1.215488
-2.5137844 -0.46930796 1.2077899
1.6233072 3.1151946 1.1411978
1.7937663 3.2325108 1.0710224
1.9522854 3.2487884 1.0544605
6.8567967 7.6353164 0.95866221
7.3266029 7.9876523 0.85187078
-2.547472 -0.30034956 1.209301
-0.92475653 1.1862389 1.2498716
1.3789216 3.1679511 1.1256758
1.543504 3.2439585 1.071403
6.6510825 7.6703119 0.95125824
6.8192377 7.9463491 0.82683331
-2.5602055 -0.036197558 1.2126542
-0.88539624 1.3118449 1.2507045
0.96210384 3.0950677 1.1416466
1.1224346 3.1716738 1.1075579
1.2465723 3.2433617 1.0777044
6.4652791 7.7118382 0.94594252
-2.5714321 0.13771611 1.1901051
-2.5902605 0.24839652 1.2073576
-0.86791086 1.734308 1.2440472
0.66264439 3.1104355 1.1496247
0.813537 3.1649501 1.1220534
0.98206544 3.2465069 1.0630811
6.1386037 7.8258514 0.94161761
6.2863274 7.8362708 0.94916838
-2.5973568 0.39563584 1.2085502
-2.5920472 0.52811861 1.2074573
-0.99606752 1.8923311 1.2451231
-0.89048195 2.0590873 1.2406741
0.37573957 3.126879 1.1165022
0.49801064 3.1848688 1.1116062
0.69220853 3.2481112 1.0688254
6.0285544 8.0063782 0.95411688
-2.5954623 0.70807964 1.210328
-0.35760236 2.755471 1.0404518
0.099674106 3.1171837 1.1104692
0.25569308 3.1187432 1.1027493
0.41781569 3.2438214 1.0319469
5.611443 7.9972243 0.93696183
5.8163209 8.0002365 0.94499594
-2.5948439 0.98147833 1.1739689
-0.88872981 2.4013505 1.2335742
-0.49664497 2.7584953 1.070074
-0.37391758 2.9325266 1.0789821
-0.1895318 3.1111925 1.1494331
-0.019547701 3.1118066 1.151075
4.860621 7.5719948 1.0076598
5.0880365 7.6853719 1.0292339
-2.6030383 1.1147517 1.1799726
-2.5944719 1.253073 1.1707569
-1.007591 2.6202574 1.2326866
-0.44472599 3.102736 1.1755295
-0.31006336 3.1082814 1.1728094
4.4753714 7.4984255 0.98646635
4.6699772 7.5574427 0.99950475
4.7384539 7.6278582 1.0100586
-2.6005301 1.3867399 1.2329615
-2.5486279 1.5175958 1.1668619
-2.5174122 1.6791331 1.1856045
4.2048802 7.4685259 0.97555029
-2.5176563 1.8252367 1.1513413
-1.1777174 3.1019714 1.1229888
-1.069989 3.0987272 1.1400661
4.0296483 7.6420341 0.99246085
-2.5189605 2.0947835 1.1700864
-1.4474344 3.1100044 1.1368083
-1.3212481 3.1058958 1.1115909
-2.5272646 2.371521 1.1662377
-1.7804892 3.1036527 1.1162739
-1.6009679 3.1111133 1.1255435
3.9456105 7.9942875 0.96391279
-2.5371742 2.5504827 1.1648688
-2.528214 2.6712594 1.1271358
-2.0724521 3.1069505 1.1728811
-1.8998992 3.1091795 1.1397903
3.6962268 7.999928 0.96090299
-2.5146313 2.7921605 1.1349356
-2.5186448 2.8802114 1.1434789
-2.2625384 3.1094489 1.1175535
3.251035 8.0064554 0.95772302
3.4247732 8.0076733 0.95899862
-2.5549674 3.034024 1.1646857
-2.4531016 3.1088011 1.152759
2.9699264 8.0051861 0.95679086
3.1399732 8.0079346 0.95738685
2.7985058 7.9989934 0.95627367
3.8530631 11.872024 0.89973605
3.4345438 11.869438 0.90082854
3.7021646 11.975157 0.90770984
3.7577667 14.558894 0.85131097
13.890863 -2.2960515 1.205003
13.903354 -2.0167234 1.1957793
13.946957 -1.7550366 1.1907094
13.962364 -1.5829629 1.1864969
13.965523 -1.3269664 1.1788968
12.818059 -2.0780418 1.2879028
12.923797 -1.8405843 1.289795
13.983195 -1.0717304 1.1732546
6.5566282 -6.355514 1.3358349
6.7619157 -6.3538361 1.35168
6.1860332 -6.3553443 1.3082294
6.3724689 -6.354424 1.3897569
6.0279331 -6.354434 1.3632553
6.18682 -6.3510818 1.4418249
5.6667233 -6.3551445 1.4025698
5.8470182 -6.3547087 1.3502282
5.4152465 -6.3574138 1.3854496
5.1061335 -6.334229 1.4239955
4.7126455 -6.3654766 1.4060302
4.869524 -6.3623738 1.4145703
4.3962088 -6.3699718 1.3295381
4.5552645 -6.370791 1.398414
4.1408091 -6.365037 1.3176327
4.3234982 -6.3057303 1.3737935
3.8396945 -6.3779225 1.3683484
4.0312943 -6.332262 1.3862345
3.6595001 -6.22716 1.3899947
4.117939 -5.8627195 1.3343599
3.1538424 -6.3764334 1.4081146
3.2939477 -6.370379 1.4096693
3.4182053 -6.2699509 1.5073013
6.4685721 -3.6047885 1.3605955
6.521678 -3.5246215 1.3561634
2.9592328 -6.3725953 1.443038
3.3766558 -6.0933795 1.3536849
3.4734368 -6.0393238 1.4011097
4.1172619 -5.2556934 1.314155
6.5287623 -3.3173513 1.3243685
2.7071524 -6.3694954 1.4592856
3.9928582 -5.2715297 1.310095
6.4753633 -2.9797978 1.3608351
2.3089027 -6.37006 1.478624
2.4587011 -6.3598552 1.437553
3.988977 -4.9267182 1.3313178
4.110301 -4.917697 1.3868303
6.5298853 -2.8472953 1.3504949
7.8634415 -1.4513891 1.254445
8.0570755 -1.3691236 1.1761662
8.1147184 -1.3124455 1.2931387
2.0049605 -6.37391 1.4638505
2.1420841 -6.3729024 1.4616027
4.1932378 -4.5575881 1.4474647
8.0925875 -1.164692 1.2067302
8.1073895 -0.98496199 1.2176217
1.7184821 -6.3715739 1.4692596
1.8663132 -6.3720136 1.4659061
4.0281086 -4.4560943 1.3149298
4.1311431 -4.4307008 1.3177351
4.289093 -4.1173468 1.4321072
7.4960985 -1.4549991 1.2355205
8.110302 -0.84798223 1.211264
8.0988693 -0.75748807 1.2049476
1.5868554 -6.3688774 1.4723208
7.0783329 -1.4525285 1.2470882
8.107954 -0.56166923 1.2524277
1.1456683 -6.3752327 1.4898157
1.3440664 -6.3307352 1.4145156
6.7107553 -1.4486116 1.2572957
8.1060085 -0.30148932 1.2428689
0.8712306 -6.3768358 1.4448282
4.0483475 -3.5790641 1.3360801
6.4374986 -1.4498549 1.2797949
8.1074381 -0.05843278 1.2366806
0.40153921 -6.371501 1.4703799
0.6097604 -6.3748589 1.458514
4.0060968 -3.4137571 1.3589408
4.0826817 -3.2972116 1.3358048
4.1858783 -3.1092525 1.3707706
6.1963058 -1.4447248 1.3017911
8.1047535 0.10513776 1.2329351
8.1060352 0.29828814 1.2307221
0.15580833 -6.3833494 1.4298095
0.25283337 -6.3830462 1.4825257
3.9983976 -3.0843079 1.3312302
4.0821276 -3.0904102 1.3831519
4.2676859 -2.9543393 1.4120044
4.2749214 -2.7307153 1.4153978
5.7415638 -1.4559807 1.2981691
5.9358644 -1.4409363 1.2728199
6.4269495 -0.92019689 1.3518195
8.1034527 0.46612707 1.2289939
-0.14646244 -6.3866472 1.4520497
0.0055463314 -6.3842897 1.4405063
4.0200844 -2.8645155 1.3362811
4.0696926 -2.7144094 1.3488556
5.5375195 -1.4581921 1.3134389
6.4405313 -0.79071414 1.3450674
6.5022721 -0.60714817 1.3497604
7.9365635 0.58360434 1.3012396
7.9964738 0.58706236 1.207731
-0.3796351 -6.3765507 1.4684635
4.0726242 -2.4680521 1.3687438
4.2796774 -2.2967446 1.4139183
4.7951431 -1.7438626 1.2170761
5.1527872 -1.5000185 1.257887
5.3440156 -1.4573659 1.3261044
6.5602455 -0.39181125 1.3539797
6.6010103 -0.20043916 1.3574134
7.7762251 0.74339867 1.2164561
-0.66663527 -6.3823466 1.4937503
4.0407043 -2.2615714 1.359565
4.105299 -2.2039757 1.3678436
4.3922997 -2.0507152 1.3693337
4.4149361 -1.8299819 1.2513846
4.6477556 -1.852663 1.2633221
4.7113395 -1.5815921 1.2198665
4.9085193 -1.4777801 1.2723935
5.0336666 -1.4430223 1.2934711
6.596015 0.020079415 1.3494258
7.7735729 0.98386651 1.2190291
7.7835636 1.1472993 1.2761313
8.0590858 1.3282609 1.175913
-0.94153714 -6.3743505 1.4960073
1.4709642 -4.2741737 1.4521654
3.9661992 -2.0500281 1.3667532
4.0729761 -1.9281416 1.2975655
4.44526 -1.6187196 1.2254403
4.5891056 -1.4652715 1.2952627
4.774375 -1.4622819 1.3076069
6.5871038 0.10530532 1.3452249
7.774847 1.1442436 1.1704942
8.0648556 1.5288385 1.1824998
-1.2166784 -6.3791656 1.4808756
-1.0687189 -6.2272124 1.5641278
1.4234595 -4.0373812 1.3790431
3.8203125 -1.8141474 1.2396722
4.1670055 -1.6306758 1.2347481
4.3230553 -1.4614568 1.3163103
4.4853287 -1.4402081 1.2338121
8.0069418 1.718533 1.1232618
8.0777302 1.829834 1.213698
-1.7258275 -6.3659382 1.3988953
-1.248255 -6.1144891 1.5612
1.5167052 -3.6255078 1.3123193
1.5542322 -3.6080775 1.3750492
3.3910751 -1.9270947 1.2948704
3.6390758 -1.8502668 1.2528243
3.9086576 -1.5283996 1.3076993
4.0544066 -1.4710881 1.3296385
8.091608 2.0631278 1.2075735
-1.8986561 -6.3663344 1.4159249
-1.8853724 -6.3455901 1.543525
-1.3791087 -6.0326281 1.5599521
-1.0832751 -5.6475844 1.5704933
1.4737108 -3.4161274 1.3116219
1.5339141 -3.2706413 1.3209044
2.8792651 -2.0864539 1.3833692
3.1305828 -2.0553467 1.3675902
3.2654834 -1.83011 1.241554
3.4521282 -1.6477292 1.2405231
3.607651 -1.5027491 1.3297539
3.7662337 -1.4702562 1.3203379
4.0534916 -1.08005 1.3481091
4.1714268 -1.0209281 1.3741493
8.0307255 2.2358015 1.1488642
8.0819874 2.3520367 1.2394828
-1.2459991 -5.540163 1.5681044
1.4620836 -3.2499678 1.3182867
1.5300714 -3.136183 1.3562409
2.8433573 -1.8771011 1.2619755
3.0724211 -1.8587435 1.2551049
3.0665064 -1.6651675 1.2504058
3.3254347 -1.4849826 1.3521156
3.4983044 -1.4778363 1.3249927
4.0159502 -1.0039126 1.3591292
4.0761461 -0.88957596 1.3639685
4.2031736 -0.73370683 1.3847017
6.4943037 1.1072505 1.3357047
8.0262814 2.5248497 1.1633359
8.0566559 2.6574645 1.1760361
-1.3467569 -5.457778 1.5641189
1.4361891 -3.0090752 1.3220816
1.5125268 -2.8589129 1.3600078
2.5381932 -2.0789969 1.3774241
2.5438709 -1.9190897 1.2831763
3.0493608 -1.4900894 1.3461578
3.2099724 -1.4847032 1.3158736
4.0323391 -0.73965794 1.3625451
4.0791101 -0.6188696 1.3619125
4.1783767 -0.44428301 1.3660656
6.4300766 1.3934681 1.3348236
8.0910931 2.824774 1.1919398
8.1213045 2.9703846 1.1472125
1.4545701 -2.7162528 1.3271494
1.5112534 -2.6244502 1.3375739
2.7675803 -1.4944355 1.346043
2.9296007 -1.4820622 1.3059673
4.0439701 -0.45085824 1.3590221
4.1013103 -0.32044306 1.3664571
4.1863947 -0.18016073 1.3869538
8.0939903 3.1062374 1.1519325
1.4690509 -2.416729 1.332276
1.5321867 -2.2576542 1.3343346
1.6896818 -2.2084911 1.448786
2.3369174 -1.4973907 1.3597014
2.4927847 -1.4961089 1.3554515
4.0346837 -0.19790289 1.3451017
4.113071 -0.027485922 1.3662111
4.166357 0.10279203 1.3583525
7.7528386 3.124418 1.2154807
1.4653819 -2.1907339 1.342623
1.6715776 -1.9988344 1.3235834
2.0633759 -1.4929821 1.350971
2.1988273 -1.4933323 1.3397181
4.0521564 0.12587893 1.3664228
4.1339073 0.24142116 1.3639463
4.2015409 0.36475286 1.3856382
7.5378442 3.1089358 1.1789473
1.3836293 -1.9525106 1.2910334
1.7647932 -1.4891729 1.3633442
1.9177855 -1.4906707 1.3397106
4.051321 0.41008818 1.3470542
4.163763 0.47129849 1.3710151
7.0271111 3.111048 1.1999676
7.2638292 3.1049914 1.240886
1.4931133 -1.4838052 1.3606863
1.6356004 -1.4871361 1.3550322
6.8167062 3.1253543 1.1649375
1.2101698 -1.4791706 1.3647676
1.365737 -1.4819899 1.3614665
1.4835912 -1.2275909 1.4516253
1.5184331 -1.1409523 1.402907
4.2140493 1.1857775 1.361896
6.5924973 3.120218 1.2236896
0.91950238 -1.4763962 1.3635256
1.0702422 -1.4751092 1.3641467
1.4173446 -1.0755415 1.3557589
1.48427 -1.0036062 1.3611137
4.0758629 1.2275372 1.342852
4.16185 1.347157 1.3589804
6.2484131 3.111449 1.2066635
6.3909111 3.1217408 1.1870533
0.64683187 -1.4686792 1.3746769
0.770262 -1.4675651 1.3656621
1.3212825 -0.92444396 1.4391011
1.4237185 -0.8448922 1.3707072
1.4871078 -0.71023875 1.3599494
4.0324392 1.3983102 1.331565
4.0986328 1.5061082 1.3489274
4.1502018 1.6505436 1.3455625
5.8989248 3.1160433 1.1871804
6.070828 3.1152973 1.2194726
0.36246049 -1.4598796 1.3765212
0.50747859 -1.4642297 1.363555
1.3448299 -0.6930908 1.4023539
1.4223342 -0.55984128 1.3738636
1.4860432 -0.43306023 1.3660491
4.0363827 1.6676084 1.3417922
4.0999737 1.8067088 1.3436971
5.6575613 3.1164503 1.2281042
0.068726659 -1.4514936 1.3860668
0.19964564 -1.4536198 1.3359369
1.3679869 -0.42982453 1.3750308
1.4230025 -0.28362897 1.3834721
1.4851785 -0.1469807 1.368247
4.0457325 1.914818 1.3293173
4.1112795 2.0723038 1.3308765
5.1749134 3.0946462 1.212079
5.3945312 3.1112742 1.2340438
-0.19984698 -1.4533975 1.3870807
1.3713536 -0.13015035 1.3838009
1.4349496 -0.00019612908 1.3843567
1.4954343 0.13409515 1.3628923
4.0252924 2.2889297 1.324437
4.12745 2.3583958 1.3345637
4.92241 3.0949192 1.2402194
5.0616245 3.1409082 1.2181883
-0.62220931 -1.4521129 1.3823893
-0.47328711 -1.4479252 1.4020991
1.3910158 0.13973714 1.3804162
1.4538813 0.28158042 1.3782753
1.5291709 0.42279711 1.3582535
4.0178595 2.5229328 1.3143572
4.1299715 2.6000252 1.3244936
4.6186714 3.1241996 1.2240814
4.7750778 3.1293101 1.2178521
4.9490557 3.2307019 1.1556038
-0.90256691 -1.4553916 1.425089
-0.75657105 -1.4540364 1.3708082
1.4134219 0.42551881 1.3702613
1.4800849 0.53917974 1.3630228
4.3440714 3.1133854 1.2421387
4.5355492 3.1752315 1.2010447
4.6431112 3.4295564 1.1433132
4.7487459 3.3940268 1.1532525
-1.2172384 -1.4504708 1.4015725
-1.0463803 -1.4499177 1.409909
1.3779731 0.6394155 1.4136283
4.0279737 3.1010356 1.240873
4.2048483 3.1580405 1.1990219
4.3757896 3.3292193 1.153975
-1.5442185 -1.4512818 1.4030877
-1.3954554 -1.4480256 1.3905625
-0.94890094 -1.1058736 1.3135592
1.5071579 1.1875058 1.3321813
1.5627155 1.2485135 1.3230329
3.7776704 3.113318 1.2424982
3.9440849 3.3159041 1.1548604
4.0663996 3.2854471 1.1657519
4.2419505 3.3999269 1.1490604
-1.7616732 -1.4343518 1.4326127
-1.2660921 -1.0097346 1.3506131
-1.0915024 -0.98903358 1.3488809
-0.9741323 -0.84958696 1.3059331
-0.88995934 -0.72759485 1.2974104
1.4525959 1.2798229 1.3363667
1.5114735 1.4016527 1.3391696
3.5017424 3.1143107 1.2418877
3.6484442 3.2420025 1.1602802
3.7727656 3.4012449 1.1530379
-2.0011697 -1.4341747 1.4280028
-1.0438123 -0.66507304 1.2898825
1.4556973 1.5378299 1.3406874
1.5290241 1.686125 1.3349744
3.092608 3.1101 1.2074002
3.1876392 3.1262245 1.2719383
3.3349361 3.1571488 1.1577754
4.115284 4.0257382 1.2832566
8.0804386 7.4198895 1.1760807
-2.2435493 -1.4425952 1.4182742
-1.130743 -0.41495401 1.3315322
-0.96443057 -0.2173498 1.3203863
