# .PCD v0.7 - Point Cloud Data file format
VERSION 0.7
FIELDS x y z
SIZE 4 4 4
TYPE F F F
COUNT 1 1 1
WIDTH 1474
HEIGHT 1
VIEWPOINT 0 0 0 1 0 0 0
POINTS 1474
DATA ascii
-3.7491574 -24.338066 -1.8357635
-10.975881 -25.839771 -2.8291836
-11.402357 -26.329899 -2.8340034
-11.295107 -26.217491 -2.8303084
-11.13048 -26.015442 -2.8310423
-15.080288 -25.954845 -3.9512844
-3.8741364 -24.302528 -1.859055
-4.1151495 -24.238747 -1.90341
-3.9956212 -24.265049 -1.8825197
-4.3092718 -24.285622 -1.9178123
-4.7764039 -24.139721 -2.0119581
-5.008553 -24.064156 -2.0603909
-4.8883076 -24.092545 -2.03758
-10.873219 -25.715431 -2.8297467
-10.721034 -25.55341 -2.8263507
-10.570547 -25.359005 -2.8303261
-10.473223 -25.246441 -2.8304205
-10.328141 -25.076618 -2.831305
-1.1300001 -21.916096 -2.157948
-5.1199045 -24.032173 -2.0829258
-5.2891002 -23.981853 -2.117867
-5.5649605 -23.888851 -2.1779561
-5.4515963 -23.928341 -2.1528606
-5.7243218 -23.845596 -2.2108922
-5.9377027 -23.775742 -2.25808
-6.2034588 -23.687454 -2.3179805
-6.0990105 -23.722485 -2.2942429
-9.2291155 -24.308968 -2.7443948
-9.8100395 -24.937809 -2.7419052
-9.6252222 -24.760769 -2.7371979
-9.536973 -24.63789 -2.7430706
-9.4059391 -24.476261 -2.7478414
-10.045349 -24.877083 -2.8071823
-10.188252 -24.907982 -2.8334694
-13.201925 -24.482983 -3.6982861
-1.3246183 -21.453949 -2.2879114
-1.5088892 -21.012283 -2.4121413
-6.3063884 -23.655552 -2.3409636
-6.4603548 -23.609642 -2.3752627
-6.7567797 -23.543793 -2.4374821
-6.6119552 -23.568153 -2.4085517
-6.9456692 -23.524052 -2.4731636
-7.2282834 -23.504696 -2.5255399
-7.088788 -23.510902 -2.5002
-7.452631 -23.511631 -2.5634215
-7.362597 -23.508366 -2.5482025
-7.6299973 -23.530651 -2.5912595
-8.0697126 -23.631939 -2.6514521
-7.895153 -23.584797 -2.6285756
-8.32757 -23.726406 -2.6813455
-8.1560707 -23.656551 -2.6627514
-8.7136593 -23.924885 -2.7167602
-8.5414362 -23.822182 -2.7034919
-9.1000671 -24.191242 -2.7413695
-8.9278469 -24.072315 -2.7301071
-13.054673 -24.161549 -3.7234962
-12.867476 -24.108398 -3.6815553
-15.822573 -23.17881 -4.8066368
-24.236526 -13.717491 -11.833333
-1.6663799 -20.615143 -2.5234356
-1.8270683 -20.231108 -2.6317551
-5.120451 -22.301407 -2.4633427
-5.2269578 -22.259876 -2.4865639
-13.197214 -23.066189 -3.9945476
-13.33493 -22.911205 -4.0677066
-13.375155 -22.722496 -4.1195364
-14.090751 -22.754681 -4.330791
-13.928068 -22.608601 -4.3115792
-14.671095 -22.591627 -4.5511546
-15.111506 -22.91293 -4.6252975
-14.772791 -22.519724 -4.6001573
-15.222691 -22.723648 -4.7043967
-15.447065 -22.752302 -4.7738628
-15.268543 -22.608339 -4.7454967
-15.600205 -22.817781 -4.8114548
-15.667256 -22.523766 -4.9008064
-15.819168 -22.472233 -4.9653559
-20.529472 -19.378681 -7.7063847
-23.474499 -14.196569 -11.17102
-23.413389 -14.0879 -11.184308
-23.405323 -13.962568 -11.236028
-23.484234 -13.564128 -11.464108
-23.539404 -13.197432 -11.668262
-23.88905 -13.021276 -11.959077
-23.908447 -12.945036 -12.007453
-23.92675 -12.873137 -12.053259
-24.054859 -12.759512 -12.185127
-1.9754505 -19.864033 -2.7350872
-2.1187534 -19.516359 -2.8332701
-13.49926 -22.532928 -4.196847
-13.416885 -22.527086 -4.173377
-13.696579 -22.339645 -4.2978954
-13.511158 -22.221317 -4.2666941
-13.777575 -22.33186 -4.3244224
-14.500414 -22.445415 -4.5278168
-20.174496 -18.824467 -7.7071028
-20.538383 -19.054951 -7.8093796
-20.257267 -18.647617 -7.8007379
-20.222878 -18.507675 -7.8275809
-20.288181 -18.422871 -7.8853617
-20.515587 -18.401287 -8.0021124
-20.681904 -18.31352 -8.1110067
-22.219946 -15.538148 -9.8987083
-22.27636 -15.329065 -10.013195
-22.48525 -14.809568 -10.342429
-23.417175 -13.303201 -11.546469
-2.7338357 -19.607323 -2.85146
-2.2722368 -19.16568 -2.9329884
-2.407815 -18.835226 -3.0265317
-3.1065416 -19.454786 -2.9170494
-2.9879522 -19.498924 -2.8971479
-3.2203259 -19.41637 -2.9352946
-3.331418 -19.380421 -2.9528468
-2.5256848 -18.543924 -3.1090202
-3.4468145 -19.33532 -2.9731166
-2.6328306 -18.273087 -3.1856887
-3.6169386 -19.272903 -3.0022507
-3.8350449 -19.19183 -3.0402665
-4.0499563 -19.11282 -3.078002
-21.770866 -10.539234 -11.951281
-21.797136 -10.446275 -12.017869
-21.812141 -10.354483 -12.077248
-2.6940947 -18.069267 -3.242389
-2.6032538 -18.011768 -3.2525408
-2.6257424 -17.689463 -3.3389537
-2.7299333 -17.444921 -3.4092534
-4.2569299 -19.035555 -3.1151011
-4.4581032 -18.961281 -3.1514275
-4.6564212 -18.88937 -3.1873963
-4.8409848 -18.834976 -3.2183683
-5.4478207 -19.282585 -3.1804323
-5.3955479 -19.135458 -3.2079811
-5.2668128 -18.994926 -3.2258537
-5.0453529 -18.866859 -3.2318473
-19.331207 -16.845184 -7.9199858
-19.351475 -16.523857 -8.0344915
-19.270584 -16.283703 -8.0732899
-19.434395 -16.310276 -8.1465797
-19.462233 -16.055683 -8.2462778
-19.513138 -15.97823 -8.2985487
-19.81884 -16.081333 -8.4193287
-19.618862 -15.679193 -8.4562216
-19.752491 -15.634086 -8.541296
-19.894676 -15.634901 -8.6149654
-20.22591 -15.279507 -8.9184313
-20.239441 -15.215017 -8.949563
-20.645927 -14.86949 -9.2997532
-20.715124 -14.732973 -9.3907013
-21.46636 -11.222824 -11.405615
-21.342468 -11.066267 -11.411679
-21.720829 -11.2325 -11.554131
-21.256012 -10.544189 -11.634802
-21.730356 -10.591872 -11.898117
-20.291256 -6.1953173 -13.741741
-20.118908 -6.0969372 -13.705718
-2.8148375 -17.229218 -3.4710255
-2.9003978 -17.013569 -3.5329297
-2.8629627 -16.751209 -3.6022394
-2.9469833 -16.801758 -3.5921888
-2.8515596 -16.565887 -3.652396
-19.325859 -16.012016 -8.1919699
-21.087204 -10.928706 -11.328873
-20.86631 -10.69055 -11.319965
-20.889423 -10.637268 -11.362185
-20.897776 -10.549564 -11.413936
-20.186073 -8.0696535 -12.418711
-20.053114 -7.8111424 -12.501202
-20.0252 -7.7283287 -12.537321
-19.371025 -5.9981527 -13.318207
-19.254889 -5.8424282 -13.360205
-19.595634 -6.1055474 -13.378534
-19.24157 -5.6625967 -13.483807
-19.181978 -5.5231562 -13.550602
-18.620949 -4.7933998 -13.766307
-19.233761 -5.3838587 -13.685683
-19.186192 -5.2733188 -13.739673
-18.793861 -4.7915573 -13.870941
-19.252335 -5.1561623 -13.867807
-19.212212 -5.0715141 -13.907657
-19.074608 -4.8551912 -13.989939
-18.977404 -4.7899404 -13.981892
-19.208374 -4.9090385 -14.028952
-2.9255209 -16.383057 -3.7055471
-3.0264406 -16.122398 -3.7813568
-2.9885187 -15.934977 -3.8321941
-2.9256907 -15.825073 -3.8610373
-3.0453596 -15.964892 -3.8257871
-19.558563 -13.417287 -9.2786589
-19.408237 -13.150214 -9.3046122
-19.604616 -13.320364 -9.3442163
-19.986671 -7.6417031 -12.569672
-19.933102 -7.502686 -12.627396
-19.217417 -5.8502717 -13.331541
-18.360619 -4.7959461 -13.609236
-2.9829416 -15.676146 -3.9048836
-3.0591187 -15.512295 -3.9536197
-3.1578341 -15.280609 -4.0224628
-19.131819 -12.875557 -9.2637901
-19.104843 -12.689323 -9.3272133
-3.3258939 -14.907963 -4.1338906
-17.099972 -5.0963998 -12.625794
-16.987366 -4.9225044 -12.69681
-16.596643 -4.5738316 -12.749593
-17.259439 -5.0858598 -12.728556
-16.972404 -4.8767586 -12.724426
-16.905645 -4.6768894 -12.845561
-16.862442 -4.5813279 -12.897572
-15.871113 -4.6386786 -12.279186
-16.051666 -4.6149549 -12.402085
-16.174402 -4.6022859 -12.482928
-15.173258 -4.7004247 -11.831888
-15.31209 -4.6885643 -11.920078
-15.498647 -4.6754885 -12.036566
-15.406981 -4.6835432 -11.977912
-15.650814 -4.661767 -12.134436
-4.3900056 -12.547123 -4.8587642
-4.4651694 -12.38758 -4.9094367
-14.455619 -4.7748122 -11.36889
-14.573965 -4.7609997 -11.446072
-14.734724 -4.7450552 -11.548822
-14.901098 -4.7297974 -11.6545
-15.036824 -4.7133408 -11.744366
-4.5423217 -12.229306 -4.9599223
-4.7203832 -11.865318 -5.0771894
-4.7566876 -11.793673 -5.1004572
-13.705369 -4.8551702 -10.891542
-13.835398 -4.8379974 -10.976349
-14.029615 -4.8195066 -11.097372
-14.231913 -4.8003588 -11.22413
-14.374744 -4.7870946 -11.31383
-13.108958 -4.9367232 -10.505203
-13.301332 -4.904191 -10.634392
-13.470415 -4.8822808 -10.742771
-13.616148 -4.8646789 -10.83559
-5.4937773 -10.305244 -5.6043272
-5.5670042 -10.129751 -5.6678782
-5.5008907 -10.000635 -5.720365
-5.6068339 -10.071018 -5.6885672
-5.5461273 -9.9086227 -5.7543874
-12.288517 -5.0459342 -9.9937601
-12.249313 -5.0497437 -9.9712811
-12.389753 -5.0274625 -10.060123
-12.559935 -4.998332 -10.170738
-12.735357 -4.973846 -10.280813
-12.913541 -4.9589119 -10.384743
-5.6057658 -9.826684 -5.7840424
-6.9620709 -11.064056 -5.3324647
-5.6441059 -9.741539 -5.8162446
-5.6970253 -9.6528187 -5.8494463
-7.0937033 -11.041038 -5.3418093
-6.963665 -10.982409 -5.3567886
-6.854403 -10.842285 -5.3979969
-6.7545233 -10.780848 -5.416481
-5.773397 -9.5200882 -5.8999214
-5.8819342 -9.344451 -5.9673691
-5.9380474 -9.2531662 -6.0029683
-5.9946461 -9.1661549 -6.0371861
-11.504076 -5.1827354 -9.5023632
-11.720204 -5.1428013 -9.6365099
-11.626637 -5.1581426 -9.5799103
-11.848755 -5.1256676 -9.711441
-12.042072 -5.0884433 -9.8364544
-12.170001 -5.0676327 -9.9166107
-6.0509243 -9.0803328 -6.0712051
-6.1051049 -8.9879303 -6.1087961
-6.1759906 -8.8716764 -6.1565323
-6.231986 -8.7852459 -6.1924109
-6.3367672 -8.64188 -6.2522955
-6.4529424 -8.4664297 -6.3283949
-6.5192332 -8.3722992 -6.3698964
-6.5727673 -8.3022137 -6.4011331
-10.515442 -5.4144659 -8.8856945
-10.620949 -5.3917179 -8.945529
-10.798408 -5.3452187 -9.0564137
-11.04036 -5.2815633 -9.2124767
-10.952816 -5.3045025 -9.1555595
-11.142581 -5.2579403 -9.276865
-11.317967 -5.2186098 -9.3878345
-11.41712 -5.1963429 -9.4514961
-7.3183126 -9.9479198 -5.6822171
-7.4779768 -9.9045591 -5.6949162
-7.3658934 -9.7491302 -5.7489872
-7.2465572 -9.6497765 -5.786675
-7.3434401 -9.4654493 -5.8503852
-6.6202235 -8.2346573 -6.431881
-6.6871414 -8.1416883 -6.4750214
-6.8022461 -7.9836793 -6.5502019
-6.8818998 -7.8841033 -6.5984764
-6.9476013 -7.8050895 -6.6376581
-7.0480809 -7.6772056 -6.7033725
-7.1687188 -7.5294161 -6.7821112
-7.303287 -7.3873281 -6.860137
-7.3828197 -7.3006353 -6.9097533
-7.4433589 -7.2351623 -6.9484544
-7.5078478 -7.1659594 -6.9902606
-9.3245811 -5.8565559 -8.1338224
-9.4584208 -5.8011408 -8.2127161
-9.6266146 -5.7341356 -8.3137064
-9.7877436 -5.6711102 -8.4138536
-9.9495945 -5.606987 -8.5194378
-10.113314 -5.5468454 -8.6255245
-10.306472 -5.4821835 -8.7491016
-10.22158 -5.5114145 -8.6933279
-10.434206 -5.4423018 -8.8305979
-7.5729809 -7.0997667 -7.0312667
-7.6864939 -6.9887743 -7.1024456
-7.8238811 -6.858572 -7.190177
-7.9602108 -6.7361755 -7.2774386
-8.1024752 -6.6232185 -7.3626223
-8.2385817 -6.5121746 -7.4515676
-8.3821735 -6.4106946 -7.5381112
-8.4569521 -6.3546696 -7.5877652
-8.5069714 -6.3257432 -7.6148815
-8.5489435 -6.293952 -7.6443481
-8.6809874 -6.2166004 -7.7203465
-8.6836681 -6.2078342 -7.7284961
-8.793355 -6.1462002 -7.7924485
-8.8456984 -6.1082225 -7.8319683
-9.0271521 -6.0075283 -7.9452772
-8.9498081 -6.0426021 -7.903203
-9.1355419 -5.9529047 -8.0116234
-9.2451935 -5.8971872 -8.0813503
-4.177402 -6.4871373 -4.9191351
-4.3317342 -6.4121428 -5.0126595
-4.4829602 -6.3417158 -5.1024628
-4.6221008 -6.2718306 -5.1874218
-4.782783 -6.1840477 -5.2887716
-4.942132 -6.1024847 -5.3860865
-5.096406 -6.0251598 -5.4790506
-5.2420187 -5.9354806 -5.5747223
-5.4542584 -5.8223009 -5.704618
-5.3681159 -5.8711538 -5.6505761
-5.5559826 -5.7612886 -5.7698231
-5.5793195 -5.7373533 -5.7896328
-5.710629 -5.6737318 -5.8659091
-5.8661494 -5.5719962 -5.968504
-6.0497088 -5.46452 -6.0826006
-5.9678888 -5.5016031 -6.0370789
-6.1629748 -5.3926897 -6.1550798
-6.3181458 -5.3097134 -6.2464056
-6.4599781 -5.2082281 -6.3412161
-6.6140428 -5.1221924 -6.4320593
-6.773056 -5.0294032 -6.5267825
-6.9199576 -4.9307227 -6.6193724
-7.0528016 -4.8336458 -6.7058311
-7.0966525 -4.7857533 -6.7413588
-7.1436319 -4.7683091 -6.7640567
-7.2155089 -4.7124624 -6.8116531
-7.3593125 -4.6179314 -6.8985591
-7.5066223 -4.5098324 -6.9916291
-7.6455641 -4.4083366 -7.0783062
-7.7815418 -4.2994823 -7.166399
-7.9328432 -4.1874647 -7.2594862
-8.0719566 -4.0720897 -7.3495083
-8.2087002 -3.9695349 -7.4325118
-8.3442011 -3.8529053 -7.5203695
-8.4854727 -3.7357984 -7.6092491
-8.6306276 -3.6117229 -7.7013307
-8.7600727 -3.5041227 -7.7815151
-8.8241434 -3.4442177 -7.8237743
-8.9026384 -3.3742757 -7.8738589
-9.040925 -3.2511816 -7.9615808
-9.1737289 -3.1304264 -8.0463171
-9.3119345 -3.005054 -8.1338005
-9.4571209 -2.8752389 -8.2243595
-9.5804157 -2.7600341 -8.3028946
-9.695487 -2.6538749 -8.3752832
-9.7689114 -2.5723782 -8.4270258
-9.8452711 -2.5051732 -8.4734135
-9.9717731 -2.3909578 -8.5512085
-10.104222 -2.2562695 -8.6385746
-10.242787 -2.1392007 -8.7197628
-10.351002 -2.0425091 -8.7851286
-2.1363802 -7.5122929 -3.6439545
-2.2460604 -7.4525604 -3.7157373
-2.4042759 -7.3797712 -3.8119304
-2.5942473 -7.2906971 -3.9281623
-2.7763844 -7.2071762 -4.0384178
-2.9066482 -7.1418881 -4.1201267
-3.1175208 -7.0331149 -4.2537913
-3.0113597 -7.0762863 -4.192729
-3.239068 -6.9730167 -4.3292856
-3.3860593 -6.9028478 -4.419116
-3.5155263 -6.8327508 -4.5024624
-3.7019749 -6.7417397 -4.6169758
-3.871388 -6.6536226 -4.7235928
-4.0048032 -6.5795383 -4.8097706
-4.0913334 -6.5325751 -4.8649855
-10.426372 -1.9784546 -8.8291721
-10.52315 -1.8786983 -8.8928413
-10.623621 -1.795969 -8.9501791
-10.704228 -1.7214246 -8.9994564
-10.810259 -1.6205273 -9.0653162
-10.922757 -1.496212 -9.1422024
-11.037958 -1.3886251 -9.2126026
-11.183483 -1.2483664 -9.3031311
-11.311074 -1.1144567 -9.3868675
-11.441548 -0.99697828 -9.4642467
-11.579296 -0.86287117 -9.5499668
-11.72319 -0.72808361 -9.6371231
-11.87887 -0.5667305 -9.7377062
-12.008489 -0.4307518 -9.8219967
-0.37248325 -8.6534004 -2.3804889
-0.47947693 -8.5917072 -2.4534068
-0.69299316 -8.4971981 -2.5828443
-0.85992432 -8.4100485 -2.69137
-1.0247021 -8.3263559 -2.7971053
-1.2000399 -8.2449389 -2.9052968
-1.3504086 -8.1432056 -3.0156698
-1.2844887 -7.9944649 -3.074095
-1.4851656 -8.0913267 -3.0927668
-1.3076954 -7.9008002 -3.1339712
-1.4872017 -7.8298802 -3.2374017
-1.6588726 -7.7394109 -3.3486347
-1.8275795 -7.6528268 -3.4565432
-1.9741735 -7.5916619 -3.5425408
-2.0579271 -7.5516534 -3.5943918
-19.298746 -11.321472 -5.7031341
-19.437778 -11.191437 -5.7974453
-19.335018 -11.207712 -5.7733183
-19.605333 -11.172009 -5.832664
-19.714531 -11.078482 -5.9014158
-19.863234 -11.02037 -5.9556141
-20.087811 -11.010472 -5.9932957
-20.448204 -11.039667 -6.0282464
-20.43601 -10.924057 -6.0915174
-20.413258 -10.808103 -6.153317
-20.407814 -10.697697 -6.2143345
-20.071774 -10.083453 -6.5083075
-12.105637 -0.34024286 -9.8803501
-12.173473 -0.27292871 -9.9227715
-12.246384 -0.19030905 -9.9726162
-12.356867 -0.077700138 -10.042837
-12.505735 0.07358551 -10.137164
-12.664717 0.23387718 -10.237241
-12.784223 0.35091019 -10.310943
-12.914661 0.4836359 -10.393386
-13.048294 0.62233543 -10.47892
-13.141726 0.71605778 -10.537313
-13.286099 0.87283039 -10.632482
-13.433052 1.016407 -10.722574
-13.530432 1.1132221 -10.78293
1.4997578 -9.5858545 -1.1830573
1.3238707 -9.496954 -1.296535
1.1244326 -9.4032717 -1.4211159
0.97984886 -9.3207836 -1.5196505
0.81178093 -9.2393246 -1.6259756
0.64255047 -9.1541729 -1.7347584
0.31725597 -8.9990911 -1.9388747
0.052839279 -8.8573828 -2.1134529
-0.10182858 -8.7871475 -2.2083902
-0.23698139 -8.7202911 -2.2943878
-20.132998 -12.590178 -5.0938954
-20.979874 -13.183414 -4.8751192
-20.274551 -12.533185 -5.1482601
-20.56395 -12.480152 -5.2221165
-20.453953 -12.494534 -5.1974368
-20.688169 -12.442833 -5.2621226
-20.566916 -12.299041 -5.327281
-21.353142 -12.30587 -5.438838
-22.025112 -12.706202 -5.3072634
-21.399124 -12.194626 -5.5093145
-22.045345 -12.642219 -5.3470135
-21.084257 -10.676516 -6.321485
-22.071804 -10.765968 -6.4104724
-22.467571 -10.793634 -6.4505978
-22.38125 -10.711815 -6.4838109
-22.431789 -10.657467 -6.5209274
-22.648106 -10.41621 -6.6840124
-22.500126 -10.227893 -6.7667727
-22.594217 -10.307382 -6.736269
-22.55752 -10.172865 -6.8048534
-21.274849 -8.636281 -7.457149
-22.708767 -10.135647 -6.8461571
-21.431702 -8.5298481 -7.5350256
-21.234144 -8.4362812 -7.5575428
-21.095802 -8.23314 -7.645793
-21.421196 -8.3299522 -7.639214
-21.224504 -8.1818323 -7.6903353
-21.15239 -8.1243582 -7.7106767
-21.293003 -7.7834988 -7.9080348
-21.153633 -7.6444974 -7.9612646
-13.694443 1.2839241 -10.887714
-21.265903 -7.5556188 -8.0226736
-13.859422 1.4574776 -10.993818
-13.982101 1.5897789 -11.074028
-14.100302 1.7157259 -11.150632
-14.224641 1.8407412 -11.228029
-14.35309 1.9754591 -11.310289
-14.477783 2.0956421 -11.385642
-14.614752 2.2338438 -11.470976
-14.748331 2.3691864 -11.554394
-14.888512 2.5031996 -11.638508
-15.03763 2.6566429 -11.732534
3.249835 -10.464532 -0.055264473
2.9577007 -10.331979 -0.23565006
2.5246658 -10.103636 -0.52115393
2.3087053 -9.9938068 -0.6611433
2.0964308 -9.883007 -0.80031395
-6.2034645 -19.521503 2.4292574
1.891448 -9.7826147 -0.9308877
-6.3649092 -19.454353 2.3382769
-6.5260906 -19.372286 2.2377262
1.7076826 -9.6857567 -1.0518074
-6.8018031 -19.181763 2.0332041
-6.9849901 -19.158558 1.9652567
-7.2306232 -19.042427 1.8187418
-7.1340189 -19.089773 1.8774185
-7.3231955 -18.996792 1.762392
-7.4680977 -18.920868 1.6713495
-7.6080632 -18.845985 1.5824981
-7.785944 -18.770275 1.4825544
-8.3983593 -19.103334 1.5306125
-8.2674923 -18.945679 1.4631472
-8.0924911 -18.823856 1.4317741
-7.9457879 -18.769028 1.4367762
-22.945482 -10.640453 -6.6020212
-22.901802 -10.561242 -6.6395659
-23.093822 -8.6828442 -7.6810417
-23.689461 -9.1306973 -7.5240669
-23.514023 -8.9449224 -7.5991817
-25.042082 -10.469257 -6.9870405
-23.899075 -8.8679409 -7.6928234
-15.189128 2.8145885 -11.828888
-24.536118 -8.1013336 -8.1844501
-24.525862 -8.0300608 -8.2203808
-15.363905 3.0053139 -11.943593
-15.536742 3.1844931 -12.052991
-15.725819 3.3956594 -12.179029
-25.025303 -7.3023047 -8.6670485
-24.711166 -6.8979421 -8.8323851
-24.451822 -6.6923218 -8.9022007
-15.902414 3.5681181 -12.286215
-24.664433 -6.7472711 -8.9032059
-16.081911 3.7508154 -12.39825
-24.717686 -6.5131207 -9.0300999
-24.662666 -6.3658872 -9.097497
-24.660439 -6.2113352 -9.1756859
-16.259623 3.9177771 -12.503224
-24.776691 -6.0411701 -9.2778435
-24.655186 -5.7449999 -9.4105167
-16.464516 4.1254129 -12.630619
-24.735479 -5.5744104 -9.5073156
1.0199614 -16.884098 3.0244179
0.45994186 -17.162212 3.0110264
0.78414059 -16.873905 2.9390707
0.29723167 -17.210464 2.987174
0.56371403 -16.879824 2.8690529
0.41681957 -16.878994 2.8194952
4.8351793 -11.21455 0.94220543
-0.30969048 -16.983471 2.6435366
0.61751938 -16.09787 2.4002056
0.70322418 -15.883677 2.2963171
0.76444721 -15.7061 2.2071409
1.1459837 -15.480787 2.1977024
-0.52535915 -17.026577 2.5993538
4.5121517 -11.055402 0.73519707
-0.89409542 -17.173628 2.5706396
-0.71049213 -17.101048 2.5852394
-1.0701923 -17.253775 2.5635414
3.7940187 -10.777762 0.31905651
3.5151443 -10.595724 0.11481571
-6.0899754 -19.59129 2.5080576
-25.294701 -10.436892 -7.0396352
-25.587881 -10.164809 -7.2280025
-25.862822 -10.32338 -7.1798611
-25.606331 -10.086259 -7.2731037
-25.497419 -9.9929667 -7.3085885
-25.719738 -9.784936 -7.4514351
-25.741596 -9.7058554 -7.4970074
-25.723557 -9.5850811 -7.5594335
-25.581303 -9.3742809 -7.6529379
-25.769936 -9.4710226 -7.6269817
-27.214935 -10.132642 -7.4694319
-25.634489 -7.9543605 -8.4112339
-24.814781 -5.638689 -9.4859867
-16.691965 4.3739872 -12.779657
-16.881939 4.5434628 -12.887894
-17.111286 4.3980408 -12.869549
-17.0226 4.6154318 -12.945248
-18.551579 3.3500032 -12.684935
-17.348059 4.6351328 -13.015211
-18.530956 3.4667263 -12.73167
-17.586361 4.8667459 -13.158773
-17.8316 5.1022978 -13.305265
-19.797096 3.5360794 -12.985722
3.6445742 -16.813828 3.8695869
3.791337 -16.587681 3.7809896
3.8489685 -16.49844 3.7460632
4.6085072 -15.583797 3.4507666
3.9060087 -16.409019 3.7108965
3.9595051 -16.317696 3.6734209
4.0417385 -16.18047 3.6178904
4.1562424 -16.003284 3.5492897
4.2497492 -15.87311 3.5023069
0.73174763 -19.551018 4.6052246
0.5156908 -19.639645 4.591114
0.52138615 -19.485847 4.4954557
6.5206823 -11.992701 1.9929047
-0.14088058 -19.718998 4.4290791
0.046220779 -19.607746 4.4187193
-0.32897854 -19.74971 4.3880901
6.0619593 -11.781639 1.7072601
-0.83082294 -19.88921 4.3163042
1.5504494 -16.921099 3.2256546
-1.3014231 -20.147022 4.3316994
1.3608332 -16.898731 3.1479683
-1.7752552 -20.400612 4.3451395
-1.6993055 -20.325222 4.3205395
1.1899853 -16.892195 3.0865059
5.6160583 -11.579628 1.4314928
-3.2640734 -21.936298 4.8784571
-2.7320189 -21.296881 4.6262617
-2.3588519 -20.766975 4.3990202
-2.1550894 -20.589626 4.3480072
-2.0465403 -20.563644 4.3651295
-3.6928849 -22.058971 4.8287668
-3.5659752 -21.950249 4.7962866
-3.0083399 -21.23988 4.5046625
-2.9492769 -21.126492 4.4493198
-2.5961742 -20.884819 4.4016457
5.2078419 -11.39192 1.1774921
-4.4388709 -22.583176 4.9478674
-4.300601 -22.473108 4.9170275
-4.1748753 -22.335321 4.8645411
-3.3878946 -21.441074 4.5194397
-4.1231861 -22.185112 4.7820559
-9.7700148 -24.062649 4.4284058
-9.5573883 -23.931206 4.3978853
-9.8830194 -24.018211 4.3694057
-10.048135 -23.618305 4.0625467
-10.207792 -23.582314 3.9971323
-10.416319 -23.501163 3.8894491
-10.312435 -23.547901 3.9472179
-10.570786 -23.43734 3.8074284
-10.77938 -23.404129 3.7318239
-10.984433 -23.390125 3.6700678
-11.191885 -23.401733 3.6248569
-11.450508 -23.412384 3.5663853
-11.71264 -23.461079 3.5325012
-12.142305 -23.593964 3.5128689
-11.925071 -23.51302 3.5135927
-12.527858 -23.746683 3.518218
-12.416569 -23.697014 3.5129061
-12.302495 -23.645073 3.506855
-12.992741 -24.002117 3.5726976
-12.81649 -23.906275 3.5525732
-12.637837 -23.80423 3.5291052
-13.238094 -24.179478 3.6298771
-13.114558 -24.089409 3.6005459
-19.274231 6.5099058 -14.175416
-28.842194 -4.6902299 -10.518095
-28.737553 -4.5568876 -10.570271
-19.603188 6.8215227 -14.369633
6.2613668 -16.172855 4.3802776
7.9101038 -12.673431 2.8826036
-1.2635908 -22.902126 6.1166172
7.4626894 -12.446295 2.5914192
3.5811672 -16.963863 3.9401789
4.7906427 -15.558105 3.4983349
0.53719902 -19.996429 4.8245363
0.88428497 -19.552204 4.6557083
6.9439859 -12.207631 2.2682648
-2.552834 -22.318832 5.3429422
-2.8317137 -22.163055 5.15693
-4.7264328 -23.079704 5.1874199
-4.6629286 -22.925213 5.1051283
-4.538671 -22.77352 5.0426464
-7.6870151 -24.517048 5.2888336
-7.9392023 -24.407101 5.1472216
-8.1214437 -24.347477 5.0581484
-8.298687 -24.285576 4.9690895
-8.5344343 -24.199673 4.8485622
-8.4206839 -24.240406 4.906208
-8.6474266 -24.158245 4.7907295
-8.8283167 -24.081219 4.6912537
-9.157464 -24.175079 4.6649008
-9.0034895 -24.008602 4.5963745
-9.3761272 -24.219563 4.635993
-9.6558018 -24.118004 4.4949999
-13.925375 -24.845909 3.9029064
-13.770309 -24.659897 3.8177242
-13.632282 -24.511574 3.7533035
-13.492919 -24.379707 3.7000914
-13.364385 -24.277374 3.6637592
-14.098312 -24.865665 3.8747759
-14.676159 -25.123062 3.9074593
-14.530276 -24.999847 3.8608608
-14.383109 -24.86414 3.806447
-14.25218 -24.788189 3.7874899
-15.476274 -25.850174 4.1979332
-15.307375 -25.706654 4.1429777
-15.121231 -25.467712 4.0295963
-14.975708 -25.365223 3.9962673
-14.807144 -25.183495 3.9164486
-31.423634 -6.8514891 -9.7737751
-19.958347 7.1760702 -14.587011
-20.341251 7.5428991 -14.814689
-20.741432 7.9431686 -15.059814
-30.26387 -2.6209121 -11.740916
8.0114527 -16.898338 5.4261847
8.129571 -16.818233 5.4188852
8.2629557 -16.736095 5.4157524
9.6517668 -13.503704 3.9852467
0.35404682 -23.774216 7.1824331
1.0565462 -22.711039 6.7220964
1.146801 -22.622868 6.6944399
8.9957571 -13.198386 3.5741682
0.12656021 -23.671354 7.0450363
8.4429197 -12.933084 3.2231445
-0.58996868 -23.276133 6.5669336
-16.158182 -26.479069 4.4530172
-15.984205 -26.312847 4.3840399
-15.814404 -26.164536 4.3259048
-15.637985 -25.999043 4.2581282
-17.093084 -27.322174 4.792202
-16.901299 -27.14098 4.7170658
-16.707199 -26.968208 4.6480417
-16.5214 -26.800449 4.5805016
-16.337282 -26.630009 4.5109129
-31.406162 -6.5206013 -9.9417429
-32.917542 -6.6554675 -10.078943
-32.769405 -6.5498028 -10.1131
-31.019066 -3.7348509 -11.296478
-21.191708 8.3993692 -15.338055
-30.894192 -3.0510287 -11.617766
-30.606018 -2.6487374 -11.775349
-30.439125 -2.4558358 -11.846439
-30.391155 -2.2905903 -11.92049
-21.658747 8.859355 -15.620903
-29.506325 -0.19411755 -12.805703
-29.215855 -0.057041168 -12.828743
-29.276653 0.091056824 -12.907979
-31.936405 -2.5579042 -12.006617
-29.367626 0.26530266 -13.003956
-29.294964 0.6218195 -13.162095
-29.133839 0.67523193 -13.163636
-22.187859 9.4018812 -15.950467
-31.102985 0.037996769 -13.147656
-31.400429 0.016057491 -13.180067
-31.187019 0.27956867 -13.27527
-29.0299 2.8267574 -14.153723
-30.184116 1.8536577 -13.87335
-29.523209 2.9606848 -14.290535
-28.792507 3.885232 -14.605248
-28.653419 4.2611341 -14.755888
10.834266 -16.101036 5.9346809
10.484946 -16.111763 5.8184195
10.204677 -16.150639 5.7432556
9.962594 -16.188923 5.681222
2.4338522 -24.753757 8.4673119
9.6999273 -16.22937 5.6133566
9.2805777 -16.338722 5.5320234
9.4820299 -16.281578 5.5682907
11.104259 -14.182529 4.8973494
2.1816072 -24.667416 8.3319626
9.0867987 -16.401625 5.5019817
8.7589827 -16.53606 5.4682112
8.9104357 -16.461832 5.4764986
8.4348173 -16.675306 5.4389639
8.5878592 -16.604357 5.4495935
1.6534023 -24.431522 8.0135441
10.327243 -13.8276 4.414175
1.389658 -24.305286 7.8492727
1.127326 -24.167698 7.6782541
-32.705666 -3.0129681 -11.889433
-33.361439 -3.0588093 -11.95802
-22.763 9.9940271 -16.309666
-32.258781 -1.0406823 -12.79339
-33.881325 -2.6163216 -12.249701
-34.117348 -2.4229183 -12.378252
-31.600784 0.79351616 -13.580353
-30.20372 2.2950811 -14.082987
-30.069424 2.3756495 -14.100554
-23.38835 10.639504 -16.700838
-33.371101 -1.2478218 -12.850216
-29.843227 2.9915228 -14.353239
-29.370739 3.6206427 -14.572398
-34.131855 -1.8739109 -12.650792
-33.204201 -0.60006475 -13.141436
-30.298485 2.7917166 -14.328913
-30.190426 2.8831663 -14.355238
-28.852226 4.5523224 -14.919861
-28.41996 4.9046154 -15.012827
-26.615952 7.2889452 -15.793318
-29.596313 3.9222317 -14.745863
-28.328194 5.5198298 -15.277442
-26.872501 7.1526537 -15.775076
-26.770779 7.2454958 -15.799603
-33.693054 -0.72831774 -13.148658
-33.381435 -0.4018302 -13.262662
-33.379875 -0.26012182 -13.330976
-33.302704 -0.14329767 -13.376388
-29.557915 4.2040949 -14.869578
-30.648834 3.28123 -14.609373
-27.375992 7.0474634 -15.81081
-27.288757 7.1497402 -15.84217
-29.262558 5.080122 -15.224671
-33.527676 0.37342262 -13.657554
-30.427353 3.9435358 -14.882674
-32.549892 1.7775497 -14.186071
12.941047 -15.02812 6.0436878
3.7854433 -25.501495 9.3761768
11.634463 -16.101158 6.2160091
11.354848 -16.146893 6.1448584
12.032817 -14.601805 5.472002
-32.908379 -20.725176 -2.2598243
-32.937279 -20.592079 -2.3430836
-33.795368 -20.915476 -2.2843552
-33.806625 -19.93935 -2.8609281
-34.357861 -0.81795073 -13.199246
-35.426537 -1.8355494 -12.851078
-33.653271 0.26690483 -13.624309
-33.901817 0.20641994 -13.630753
-35.200932 -0.41441441 -13.51503
-34.232624 0.92440414 -14.023498
-33.159035 2.6756105 -14.699909
-29.321732 7.4484358 -16.306004
-34.955654 1.0397396 -14.18285
-33.260307 3.0344 -14.883795
-29.619949 7.4073458 -16.33544
-33.098957 3.4496813 -15.054812
-31.873344 4.9663353 -15.575397
-30.226536 7.1198616 -16.302557
-33.341125 3.7369442 -15.22539
-32.735092 5.1261597 -15.780497
-31.997723 6.2989588 -16.206942
5.9743719 -26.590996 10.773859
13.836707 -15.454052 6.6107969
16.195896 -12.563377 5.7735481
4.4574003 -25.828693 9.8001842
-32.81263 -24.408016 -0.036279678
-32.787067 -24.213989 -0.14969635
-32.544933 -23.867399 -0.32000208
-32.652283 -23.772429 -0.39494801
-33.067738 -23.715092 -0.49702406
-33.065556 -23.458298 -0.65149784
-33.508602 -23.501919 -0.69657516
-31.01812 8.111434 -16.876474
-33.531738 7.1014051 -16.811905
-32.346607 8.9203539 -17.453449
16.029144 -16.488674 7.9946537
-31.319248 10.264861 -17.891941
-36.928593 3.8673143 -15.81677
-32.500694 9.4718885 -17.726891
-32.326401 10.671432 -18.237703
-32.208984 10.801589 -18.276884
-32.636913 10.466945 -18.196302
-37.521801 4.8819809 -16.382948
-37.243729 5.1310177 -16.458933
-36.56348 5.9443407 -16.738216
-36.143982 8.147006 -17.694458
-30.297466 17.574284 -20.933533
-36.798149 10.59685 -18.916611
-38.328339 15.440053 -21.347454
-44.864674 -13.119222 -23.499729
-44.549908 -18.403553 -20.493523
-41.567379 -5.1606965 -26.423176
-43.170021 -18.539036 -19.644222
-41.936844 -9.3328037 -24.006683
-42.318214 -8.8089027 -24.548656
-40.62373 -4.8765268 -26.059929
-41.416252 -8.6091366 -24.143826
-40.435741 -4.7142811 -26.057678
-40.209373 -5.8138108 -25.204418
-40.104542 -5.6451607 -25.25292
-40.079571 -5.4705114 -25.352325
-40.583851 -11.813368 -21.754911
-37.697762 -25.98196 -13.335054
-36.413876 -26.257568 -12.568119
-36.61116 -26.19894 -12.691545
-36.72121 -26.090504 -12.790092
-36.646217 -25.850613 -12.845558
-37.111698 -25.969463 -13.037949
-35.94775 -26.213051 -12.348177
-37.103138 -4.909831 -23.986534
-35.122337 -26.27879 -11.905476
-35.183071 -25.945881 -12.062881
-35.668983 -23.94305 -13.099771
-36.262066 -24.127979 -13.334139
-35.876846 -23.720528 -13.298626
-36.383877 -23.856281 -13.508657
-34.124825 -5.1027012 -22.123871
4.5812321 -30.058548 0.95260954
4.3498421 -30.120602 0.95052958
3.9818525 -30.267101 0.95917606
4.1201344 -30.200241 0.95290565
-14.442129 -33.517044 -1.5135174
-13.64013 -31.879852 -1.674911
-13.972004 -32.282753 -1.6716108
-13.766645 -31.83707 -1.7192111
-31.98225 -15.067392 -15.054441
-31.923023 -15.174421 -14.967918
-31.377117 -9.3460226 -17.829456
-30.023876 -5.3511877 -19.57126
-13.20602 -30.599091 -1.8553247
-28.322498 -21.82518 -10.169806
-28.253796 -21.633789 -10.206956
-28.345821 -21.498508 -10.303886
-13.029054 -30.191494 -1.9025898
-27.851643 -21.881516 -9.9148712
-27.866943 -21.616936 -10.020215
-29.47752 -16.607483 -12.924785
-29.564526 -16.52747 -13.009066
-28.172405 -4.8121653 -18.862049
-28.147293 -4.471849 -19.082127
-28.803967 -17.208401 -12.288562
-28.714897 -16.993217 -12.335393
-29.176937 -16.586094 -12.769798
-28.355522 -5.3447828 -18.605686
-28.135876 -5.1547709 -18.60688
-27.603527 -4.4661083 -18.771854
-28.18869 -5.0346317 -18.719316
-28.134613 -4.9313631 -18.758486
-28.023655 -4.6128387 -18.913124
-28.480507 -17.163708 -12.133289
-28.470039 -16.706074 -12.330008
-28.328156 -16.41794 -12.381762
-28.651417 -16.680859 -12.440029
-28.590782 -16.426365 -12.52142
-28.34259 -9.7550049 -15.817295
-12.562865 -27.373775 -2.4315033
-12.441018 -27.249847 -2.4280677
-12.193689 -26.957321 -2.4310923
-12.077722 -26.815716 -2.4337802
-11.899695 -26.611191 -2.4352727
-12.318794 -27.10968 -2.4284606
-16.226938 -26.441936 -3.7260499
-27.638657 -10.455186 -15.004841
-3.9363241 -24.480206 -1.3872223
-4.1218128 -24.424915 -1.4259157
-11.728401 -26.413132 -2.4373298
-11.61717 -26.294628 -2.4365525
-11.505548 -26.152138 -2.44136
-11.396716 -26.02861 -2.4426622
-11.231423 -25.839317 -2.4453559
-15.297257 -25.807323 -3.5855064
-15.433844 -25.566219 -3.6864142
-26.427319 -10.726123 -14.150227
-0.34465694 -22.162811 -1.6123981
-0.47079849 -22.160255 -1.6229563
-0.32954693 -22.011459 -1.6531782
-4.426126 -24.33041 -1.4910545
-4.3065639 -24.366165 -1.4656773
-4.5456672 -24.292061 -1.5172172
-4.7204199 -24.247196 -1.5530291
-5.0156555 -24.14476 -1.620738
-4.8927422 -24.175919 -1.5952163
-5.1306481 -24.106262 -1.6470375
-5.3040538 -24.049812 -1.6866121
-10.089869 -24.965225 -2.3755038
-10.18496 -24.913918 -2.4089997
-11.07513 -25.654789 -2.449486
-10.97217 -25.542797 -2.4502149
-10.818431 -25.367939 -2.4533646
-10.667073 -25.188171 -2.4585271
-10.569077 -25.08007 -2.4601665
-10.472153 -24.967609 -2.4632106
-25.938538 -11.81488 -13.27886
-26.161594 -10.76816 -13.973078
-26.190937 -10.60069 -14.083158
-0.54123974 -21.549191 -1.7976809
-0.73843002 -21.102146 -1.9370079
-5.5259271 -23.977219 -1.7378235
-5.7462344 -23.909199 -1.7882776
-5.959024 -23.851997 -1.8355532
-6.1260924 -23.784897 -1.8783445
-6.3358006 -23.719307 -1.9281392
-6.2307534 -23.754295 -1.902617
-6.4939976 -23.664024 -1.9674759
-6.650116 -23.611185 -2.006176
-9.451272 -24.290909 -2.3883424
-9.3163671 -24.184898 -2.3836451
-9.1411877 -24.061619 -2.3747175
-9.8992186 -24.838219 -2.3615348
-9.764739 -24.628613 -2.3796182
-9.6284523 -24.472504 -2.3853121
-9.5397682 -24.373158 -2.3886974
-10.282313 -24.881714 -2.4387867
-10.373569 -24.856525 -2.4657035
-13.223764 -24.180489 -3.3550837
-13.061922 -24.047092 -3.340709
-13.374573 -24.270714 -3.3767405
-15.072281 -24.040253 -3.9419043
-15.938494 -23.827465 -4.2746081
-16.426878 -23.863453 -4.429739
-16.264339 -23.687664 -4.4186134
-16.034721 -23.453756 -4.3995829
-16.60895 -23.834059 -4.4993229
-16.513027 -23.840218 -4.4649286
-0.93845177 -20.670458 -2.0724053
-1.1282616 -20.261663 -2.2007852
-6.7498546 -23.586826 -2.0288668
-6.8981476 -23.550999 -2.0627904
-7.1380744 -23.523586 -2.1111827
-7.3749037 -23.502588 -2.1583467
-7.6927133 -23.506733 -2.215539
-7.5579615 -23.502949 -2.1915693
-7.9628229 -23.538761 -2.2588692
-7.8266077 -23.522007 -2.2370191
-8.2263184 -23.616482 -2.2915969
-8.0969305 -23.569662 -2.2773924
-8.5327377 -23.711086 -2.3302903
-8.3578491 -23.648758 -2.3099344
-8.9255285 -23.90506 -2.365602
-8.750596 -23.814854 -2.3504393
-9.0114422 -23.966454 -2.3693457
-15.232857 -22.841915 -4.2856131
-22.26152 -18.148968 -8.5231819
-24.308386 -14.027434 -11.266144
-24.270525 -13.930521 -11.290079
-24.11441 -13.61911 -11.348929
-24.141399 -13.384432 -11.474717
-1.3063259 -19.877096 -2.3216512
-13.304937 -23.022957 -3.6500721
-13.585197 -22.945946 -3.7499001
-13.691764 -22.854771 -3.8029525
-13.803286 -22.622158 -3.8914559
-14.080904 -22.882612 -3.9131551
-14.350854 -22.932703 -3.9838226
-14.169019 -22.726444 -3.9773819
-14.504906 -22.720554 -4.0827456
-15.281334 -22.476454 -4.3912878
-15.35785 -22.451563 -4.4226484
-21.041393 -19.108513 -7.6168203
-20.86599 -18.820927 -7.6307421
-21.003197 -18.854069 -7.6831527
-20.898792 -18.643623 -7.704648
-21.254116 -18.782801 -7.8234873
-20.999882 -18.430489 -7.8230886
-21.482031 -17.972021 -8.208993
-21.681952 -17.953499 -8.3117943
-23.779373 -13.639184 -11.154128
-23.989323 -13.4828 -11.343642
-23.971212 -13.397877 -11.373682
-23.971361 -13.159054 -11.487465
-23.810659 -13.01757 -11.465635
-24.062336 -13.031858 -11.599501
-23.961208 -12.842243 -11.634804
-24.082355 -12.722657 -11.761341
-1.4839058 -19.501114 -2.4401925
-1.6444187 -19.155148 -2.5491936
-1.8020134 -18.816082 -2.6561651
-2.8800125 -19.638552 -2.5111034
-20.830742 -18.472328 -7.7301288
-20.917385 -18.249352 -7.8455558
-20.857082 -18.042561 -7.8873591
-20.98382 -17.866682 -8.0075769
-20.959457 -17.698767 -8.0539942
-1.9521227 -18.497349 -2.756973
-2.1008625 -18.186728 -2.8554916
-3.2639232 -19.465248 -2.592073
-3.437911 -19.402214 -2.625015
-3.6641483 -19.320055 -2.6682901
-20.177811 -4.2267036 -14.694893
-20.446888 -4.2049112 -14.862715
-2.2166204 -17.923359 -2.9384661
-2.2250185 -17.679689 -3.0093265
-2.1363039 -17.56192 -3.0383132
-2.2870874 -17.717356 -3.0022123
-3.8590069 -19.206833 -2.717124
-2.2519898 -17.315674 -3.1168838
-4.0479798 -19.178055 -2.7434907
-3.9387269 -19.221916 -2.7210319
-4.2048965 -19.120808 -2.7744601
-4.3841577 -19.094826 -2.7998981
-4.6427169 -18.991711 -2.8542864
-4.5409842 -19.033279 -2.8325391
-4.791472 -18.935249 -2.8851867
-5.6340137 -19.322182 -2.8884778
-20.038382 -15.825073 -8.2735043
-22.001488 -11.339893 -11.276782
-22.044214 -11.286294 -11.328581
-21.771906 -10.630007 -11.516047
-21.940754 -10.60651 -11.625605
-20.336025 -5.6279302 -13.767655
-19.930511 -4.2459726 -14.541373
-2.3639698 -17.078377 -3.1927321
-2.4568305 -16.867466 -3.2598763
-2.5564909 -16.64665 -3.3304183
-2.5264359 -16.486221 -3.3764555
-5.0214047 -18.865398 -2.9289999
-5.5630751 -19.118221 -2.9302793
-5.4325233 -18.9762 -2.9496551
-5.2436981 -18.883938 -2.9501684
-19.733696 -15.852766 -8.1137733
-19.86076 -15.877047 -8.1672249
-19.832214 -15.775574 -8.1899939
-21.36945 -10.846577 -11.17119
-21.008659 -10.334322 -11.23537
-21.351158 -10.782081 -11.19446
-21.03941 -10.281584 -11.281432
-21.311813 -10.216404 -11.473663
-21.365765 -10.137259 -11.547918
-19.365738 -5.2614036 -13.473233
-19.7906 -5.5300045 -13.523463
-19.313799 -5.1172285 -13.548405
-19.427261 -4.9495821 -13.735502
-19.434402 -4.8475566 -13.814529
-20.011494 -5.539547 -13.643502
-19.490131 -4.7612748 -13.909722
-19.622215 -4.6468167 -14.069069
-19.570663 -4.5938072 -14.079271
-2.5921941 -16.510614 -3.3725927
-2.4528847 -16.373537 -3.4064617
-2.5303879 -16.192482 -3.4645681
-2.605917 -16.019508 -3.5202518
-2.6951342 -15.790912 -3.5935349
-2.6188183 -15.691596 -3.6204667
-20.040205 -13.277893 -9.2792606
-20.217974 -7.8515654 -12.216631
-20.164028 -7.7089605 -12.274836
-20.090071 -7.5118332 -12.356953
-19.376743 -5.4482903 -13.344753
-19.361961 -13.324589 -8.8994331
-19.154591 -13.02809 -8.9135723
-19.115419 -12.890151 -8.9509258
-19.264574 -12.916701 -9.019145
-19.103905 -12.627657 -9.0571003
-19.04982 -12.487782 -9.0886965
-16.321791 -4.2046623 -12.582744
-17.262318 -5.103467 -12.399885
-17.127983 -4.9398279 -12.449059
-16.464893 -4.1791453 -12.680026
-17.417313 -5.096323 -12.492098
-17.106979 -4.8655505 -12.494156
-17.060322 -4.7453375 -12.560652
-16.589993 -4.1628046 -12.760404
-17.574043 -5.0921545 -12.583157
-17.017378 -4.5342579 -12.700394
-16.932493 -4.3990078 -12.759534
-15.602709 -4.3187256 -12.107323
-15.709114 -4.3056507 -12.174351
-15.885945 -4.2771235 -12.291465
-16.067368 -4.2456164 -12.413631
-16.201153 -4.2201066 -12.505693
-3.9799309 -12.762626 -4.5944996
-4.0238619 -12.672771 -4.6253448
-14.973253 -4.4059753 -11.705039
-15.152999 -4.3831367 -11.817797
-15.356985 -4.3484974 -11.953312
-15.501701 -4.3313704 -12.043606
-14.237299 -4.5183043 -11.231977
-14.518192 -4.4671865 -11.418537
-14.397319 -4.4888239 -11.338438
-14.630692 -4.455308 -11.486423
-14.802805 -4.4278297 -11.598307
-13.418735 -4.6491828 -10.710653
-13.541887 -4.6236625 -10.793272
-13.727266 -4.5944662 -10.910294
-13.952313 -4.5620294 -11.05068
-13.849501 -4.5801497 -10.983618
-14.088301 -4.544065 -11.134588
-5.2609787 -10.375788 -5.4479513
-12.648 -4.7827129 -10.224377
-12.812169 -4.7524662 -10.328204
-13.00618 -4.7218914 -10.447388
-13.191609 -4.6900244 -10.564518
-13.35994 -4.6587338 -10.673584
-13.30044 -4.6715646 -10.63343
-5.2953386 -10.294921 -5.478724
-5.3609152 -10.184814 -5.5206265
-5.4102335 -10.084136 -5.559412
-5.4326277 -9.9695129 -5.604764
-5.3825517 -9.8415775 -5.6577988
-5.4863143 -9.7018175 -5.7127581
-5.5928254 -9.5259953 -5.7834091
-5.6750712 -9.3927917 -5.837636
-11.813995 -4.9560347 -9.6940651
-11.956767 -4.9236021 -9.7853928
-12.144704 -4.8809347 -9.9068213
-12.06464 -4.9034133 -9.851038
-12.301283 -4.8519211 -10.003315
-12.491842 -4.8130426 -10.125059
-7.095377 -11.066653 -5.2245293
-7.0546293 -10.866565 -5.2854595
-6.8706779 -10.816474 -5.2961569
-5.7204781 -9.3144436 -5.8699751
-7.2058487 -10.862062 -5.2921472
-5.8109736 -9.1884699 -5.9219985
-5.9075527 -9.0420437 -5.9835725
-5.9645286 -8.9584875 -6.0191131
-6.0487695 -8.8376741 -6.0711827
-6.1584415 -8.6749649 -6.1426797
-6.2306075 -8.56849 -6.1903319
-6.2784576 -8.5001078 -6.2213092
-10.901633 -5.1779957 -9.123455
-11.069016 -5.1264791 -9.2341328
-11.244773 -5.0826049 -9.3429775
-11.463202 -5.0290956 -9.4800129
-11.373274 -5.0511351 -9.4232178
-11.600508 -5.0024223 -9.5613337
-11.728071 -4.9775963 -9.6377239
-7.580318 -9.9211721 -5.6061897
-7.5194888 -9.8472233 -5.6308937
-7.372098 -9.7112598 -5.6782255
-7.249217 -9.6106052 -5.7153406
-6.3163748 -8.4446859 -6.2466946
-7.3469639 -9.4756823 -5.7649307
-6.3905497 -8.3481522 -6.2911735
-6.5075207 -8.1956081 -6.362926
-6.5971828 -8.081008 -6.4180255
-6.6543913 -7.99928 -6.4584904
-6.752172 -7.8781157 -6.5192118
-6.8755717 -7.7319999 -6.5943456
-6.9935794 -7.5878525 -6.6713834
-7.0668821 -7.5012689 -6.7188358
-7.1099787 -7.4530869 -6.7457376
-9.756011 -5.5720296 -8.3966417
-9.9048185 -5.5112906 -8.4916067
-10.071074 -5.4479132 -8.596859
-10.238852 -5.3846641 -8.7057924
-10.407764 -5.3248935 -8.8149033
-10.652997 -5.2547112 -8.962801
-10.565828 -5.2761436 -8.912899
-10.744985 -5.2274837 -9.0206451
-7.1693993 -7.3932142 -6.7794065
-7.2553959 -7.3034062 -6.8313565
-7.3861036 -7.1693954 -6.9115534
-7.5210791 -7.0319562 -6.997664
-7.6546464 -6.9032598 -7.0821667
-7.7777452 -6.7928181 -7.158021
-7.8413849 -6.733284 -7.2003164
-7.9273233 -6.6651888 -7.2503781
-8.0691032 -6.5479898 -7.3399591
-8.2095184 -6.4348297 -7.4313054
-8.354167 -6.3285403 -7.5223012
-8.4979334 -6.2326984 -7.6095409
-8.6418591 -6.137331 -7.7010956
-8.7953825 -6.0403996 -7.7997265
-8.9474764 -5.9481049 -7.899158
-9.1045885 -5.8694773 -7.9920111
-9.2561035 -5.7852726 -8.0933924
-9.4135704 -5.7188749 -8.1839838
-9.6308956 -5.6294847 -8.3133001
-9.5644445 -5.6520019 -8.2774839
-9.6771326 -5.6089125 -8.3431644
-5.8084035 -5.3113279 -5.9340692
-5.9094157 -5.2537756 -5.9974108
-6.1031733 -5.1552453 -6.1125164
-6.0363402 -5.1853213 -6.0747657
-6.2186723 -5.085113 -6.1856303
-6.3673244 -4.9924355 -6.2800341
-6.4099092 -4.9538283 -6.3123322
-6.5249157 -4.8907628 -6.3805733
-6.45609 -4.9280238 -6.3400216
-6.6657734 -4.8059816 -6.4667115
-6.8316498 -4.6992798 -6.5700269
-6.801549 -4.7095013 -6.5553474
-6.9424181 -4.6254778 -6.6393542
-6.9738617 -4.5976276 -6.6618729
-7.0928059 -4.5301275 -6.7303543
-7.123291 -4.4983773 -6.7539978
-7.2596998 -4.4090786 -6.8365293
-7.4027476 -4.3011045 -6.928041
-7.5478477 -4.1943793 -7.0185671
-7.681447 -4.0888643 -7.1038752
-7.8214149 -3.9652815 -7.1974812
-7.9722099 -3.8524179 -7.2889013
-8.1142941 -3.7420468 -7.375597
-8.2484951 -3.6349254 -7.4577208
-8.3824034 -3.5157771 -7.5436411
-8.5215645 -3.3940639 -7.631196
-8.640604 -3.279686 -7.709424
-3.757513 -6.3581018 -4.6470957
-3.8650317 -6.2976561 -4.7194848
-4.0289044 -6.2214556 -4.8213
-4.2062688 -6.1371379 -4.932004
-4.3536644 -6.0673494 -5.0234895
-4.5023923 -6.0022116 -5.1127682
-4.6618772 -5.9306612 -5.2089577
-4.8281631 -5.8510156 -5.3112411
-5.0021744 -5.7660542 -5.4184647
-5.148262 -5.6909561 -5.5097957
-5.3014522 -5.6096511 -5.6061854
-5.4589696 -5.5217733 -5.7066908
-5.6027904 -5.4332438 -5.8016839
-5.7304435 -5.3555593 -5.8849869
-8.7073145 -3.2170439 -7.7524242
-8.7870245 -3.1392508 -7.8046455
-8.9325027 -3.0180125 -7.891222
-9.0680027 -2.8916893 -7.9763741
-9.1945744 -2.7594752 -8.0608215
-9.3281975 -2.6307683 -8.1451359
-9.4114971 -2.5525217 -8.1966572
-9.4693184 -2.4988775 -8.232008
-9.5853043 -2.3767662 -8.3082352
-9.7279091 -2.2278609 -8.4009781
-9.8514462 -2.1113758 -8.4760494
-9.9855366 -1.9743156 -8.5612087
-10.10884 -1.8547816 -8.636652
-10.181908 -1.7868547 -8.6800842
-10.255959 -1.713686 -8.7256413
-10.35205 -1.6081014 -8.788723
-2.1348267 -7.0712137 -3.6429272
-2.2474027 -7.0184317 -3.7150469
-2.428504 -6.9353924 -3.8298669
-2.6163712 -6.8574891 -3.9443383
-2.7544079 -6.7970171 -4.0300031
-2.9211407 -6.7252107 -4.1326103
-3.0760698 -6.6546197 -4.2297974
-3.2186522 -6.5862513 -4.3208084
-3.3963685 -6.5105786 -4.4289637
-3.55581 -6.4350672 -4.5296869
-3.6732121 -6.3904734 -4.5979743
-10.411104 -1.5458508 -8.8263845
-10.513847 -1.451839 -8.8862133
-10.66328 -1.2965822 -8.9800978
-10.773725 -1.179738 -9.050066
-10.889567 -1.0557618 -9.1237936
-11.033915 -0.91711283 -9.2092838
-11.161147 -0.78053808 -9.2899723
-11.29677 -0.62894726 -9.3780794
-11.407682 -0.50760651 -9.4489775
-11.464706 -0.44640923 -9.484911
-11.554323 -0.34562111 -9.5431004
-11.672832 -0.22948837 -9.6132765
-0.66751766 -7.8904285 -2.6229811
-0.56057167 -7.734036 -2.6681476
-0.70392895 -7.685812 -2.750638
-0.83474541 -7.6387854 -2.8275371
-1.0039291 -7.5435448 -2.9458628
-0.89835835 -7.5890889 -2.8797014
-1.1081009 -7.4991226 -3.0108178
-1.2793941 -7.4357138 -3.1122413
-1.4725218 -7.3522582 -3.2330086
-1.6166229 -7.2907577 -3.322588
-1.7422791 -7.2338166 -3.4024045
-1.9167519 -7.1584921 -3.5110607
-2.0544071 -7.1047421 -3.593605
-19.945274 -11.345486 -5.5029902
-19.62574 -11.052724 -5.6344366
-19.718185 -10.899948 -5.7333984
-20.005444 -10.936073 -5.7464204
-19.96944 -10.845341 -5.7941904
-20.158573 -10.71427 -5.8910732
-20.089445 -10.537739 -5.9833579
-20.291374 -10.060007 -6.2751522
-11.803928 -0.06814003 -9.7035217
-20.330042 -9.9633865 -6.3333559
-11.935449 0.069307327 -9.7844238
-12.073967 0.21526241 -9.8699379
-12.183467 0.34158039 -9.9416943
-12.294268 0.46016884 -10.010612
-12.44647 0.61956978 -10.103786
-12.570765 0.7586174 -10.183228
-12.693323 0.88785744 -10.258389
-12.82551 1.0346403 -10.342252
0.79659176 -8.6153717 -1.6454735
0.35128784 -8.4089231 -1.935626
0.19252777 -8.3462677 -2.0327721
-0.0020914078 -8.2546282 -2.1601276
-0.22593403 -8.1654415 -2.297379
-0.35568237 -8.1086092 -2.3797555
-0.50678062 -8.0258923 -2.4848559
-0.29994202 -7.8356791 -2.5102997
-0.45547199 -7.7861557 -2.5983453
-20.306534 -10.810882 -5.8532228
-20.241192 -10.65721 -5.9331007
-20.507183 -10.430288 -6.092114
-20.493679 -10.317831 -6.1538239
-20.66783 -10.414211 -6.1195536
-21.284729 -8.740139 -7.1065702
-21.016224 -8.4967155 -7.2067323
-12.967426 1.2006521 -10.435469
-21.487797 -8.8082314 -7.0925031
-21.194019 -8.2814445 -7.3402438
-13.11061 1.3656263 -10.528446
-21.201702 -8.1416636 -7.4146399
-13.209673 1.4713736 -10.589427
-21.30645 -8.1138916 -7.440774
-21.229263 -7.9733086 -7.5059667
-13.310719 1.5838652 -10.653394
-13.468651 1.7574701 -10.752409
-13.629669 1.9351444 -10.853531
-13.741838 2.0578794 -10.923505
-13.856984 2.177187 -10.992658
-13.981944 2.3296719 -11.076698
2.2817955 -9.2746067 -0.69145584
2.0386143 -9.1749086 -0.84318924
1.6881409 -9.0050411 -1.0767174
1.4821005 -8.9208307 -1.2049494
1.2859459 -8.8398857 -1.3274136
1.1327534 -8.7643852 -1.4300084
0.97683239 -8.690589 -1.5326366
-7.9872999 -18.769808 1.8197927
-8.4403896 -18.90313 1.7817249
-8.2966499 -18.817425 1.7635107
-8.1493883 -18.764929 1.7695093
-21.742064 -12.761715 -4.8916636
-21.338573 -12.530655 -4.9782929
-22.057167 -12.721825 -4.9539719
-22.059444 -12.585985 -5.034101
-21.774593 -12.244062 -5.1997128
-22.333027 -12.24584 -5.265914
-22.832455 -10.722561 -6.1934137
-22.505341 -10.014584 -6.5497904
-22.314783 -9.8906507 -6.5966702
-22.880817 -10.307198 -6.4302464
-22.76321 -10.12413 -6.5182886
-22.778801 -9.2902699 -6.9756198
-22.825642 -9.1653605 -7.0482264
-23.064764 -8.9928923 -7.1673384
-22.680937 -8.7091084 -7.2767911
-23.2108 -9.0705814 -7.1417422
-23.201714 -8.4412317 -7.4762306
-14.107706 2.4657698 -11.154398
-23.312328 -8.2134228 -7.6085396
-14.234073 2.6032181 -11.232693
-14.361674 2.7378283 -11.310054
-23.412003 -7.808167 -7.8315554
-14.498561 2.8841162 -11.39373
-23.527649 -7.6719966 -7.9150653
-23.40057 -7.6050243 -7.9358568
-14.809755 3.2611609 -11.601326
-14.951229 3.4043303 -11.684473
-15.103278 3.5664825 -11.77705
3.4294071 -9.7880974 0.050364017
3.1384668 -9.6693783 -0.1312294
2.9130306 -9.5669994 -0.27788448
2.6967382 -9.4639511 -0.42130947
2.4566669 -9.3632755 -0.57253027
-6.5259056 -19.458942 2.7285013
-6.6892633 -19.372068 2.6194029
-6.8380933 -19.297863 2.5235415
-7.0542927 -19.180267 2.3778057
-7.1972313 -19.137154 2.3055267
-7.3422632 -19.060137 2.2093744
-7.4838104 -19.00618 2.1303406
-7.6702061 -18.916973 2.0139561
-7.8083043 -18.846418 1.9248133
-8.698122 -19.335089 2.0079165
-8.643405 -19.148861 1.8943129
-8.5087423 -18.969597 1.8082972
-8.5768757 -19.042236 1.8392725
-23.583702 -13.064845 -4.9389277
-23.632145 -13.00968 -4.9770918
-25.236 -9.8569984 -6.9405584
-25.461506 -9.9655142 -6.9065161
-15.268479 3.7464752 -11.879082
-24.765438 -7.3443441 -8.2204552
-24.642563 -7.1998711 -8.2813148
-25.062695 -7.4083266 -8.2200775
-24.436203 -6.6146941 -8.5574055
-15.442048 3.9503803 -11.992078
-24.604088 -6.6742687 -8.5456915
-24.565269 -6.5294523 -8.6148624
-15.619147 4.1422548 -12.100904
-15.813297 4.3702002 -12.227119
-24.730045 -6.2414384 -8.7785158
-24.645679 -6.1376896 -8.8213387
-24.8871 -6.0267677 -8.9038019
-15.9936 4.5657492 -12.337873
-24.911749 -5.8663783 -8.9868269
-16.206207 4.8105001 -12.474024
-18.921844 3.325593 -12.340889
0.78056717 -16.702831 3.3193836
0.260952 -16.646221 3.0964031
-0.14696789 -16.785686 3.0419006
0.00057888031 -16.727982 3.0567312
1.0030518 -15.485935 2.6155567
-0.34652519 -16.856205 3.0172205
-0.24671936 -16.815804 3.0261679
0.39932156 -16.051628 2.7603683
0.47244167 -15.938705 2.7138243
0.48438931 -15.781288 2.6165905
0.52645493 -15.702442 2.581049
4.7568331 -10.318809 0.87335253
4.4133501 -10.178682 0.65865421
4.0498505 -10.034925 0.43416739
3.7302122 -9.9095058 0.23741531
-26.199936 -10.393955 -6.7545004
-26.175777 -10.263159 -6.8234596
-25.934298 -10.105538 -6.8827233
